VERSION
FIELDS x y z
SIZE 4 4 4
TYPE F F F
COUNT 1 1 1
WIDTH 1897
HEIGHT 1
VIEWPOINT 0 0 0 1 0 0 0
POINTS 1897
DATA ascii
-0.90625 0.448474 2.65625
-0.90625 0.448455 2.71875
-0.90625 0.448436 2.78125
-0.90625 0.448419 2.84375
-0.90625 0.448409 2.90625
-0.90625 0.460555 3.03125
-0.90625 0.448564 3.09375
-0.90625 0.448337 3.15625
-0.90625 0.448319 3.21875
-0.90625 0.448301 3.28125
-0.90625 0.448287 3.34375
-0.90625 0.448277 3.40625
-0.90625 0.461833 3.53125
-0.90625 0.450643 3.59375
-0.90625 0.448206 3.65625
-0.90625 0.448191 3.71875
-0.90625 0.448175 3.78125
-0.90625 0.448159 3.84375
-0.90625 0.448148 3.90625
-0.90625 0.44813 3.96875
-0.90625 0.456948 4.15625
-0.90625 0.448057 4.21875
-0.90625 0.448034 4.28125
-0.90625 0.448019 4.34375
-0.90625 0.448003 4.40625
-0.90625 0.447987 4.46875
-0.90625 0.461941 4.65625
-0.90625 0.452084 4.71875
-0.90625 0.447908 4.78125
-0.90625 0.447889 4.90625
-0.90625 0.44787 4.96875
-0.90625 0.447849 5.03125
-0.90625 0.447829 5.09375
-0.90625 0.447807 5.15625
-0.90625 0.447786 5.28125
-0.875 0.466642 1.875
-0.875 0.448491 3.875
-0.875 0.447876 4.875
-0.84375 0.448849 1.15625
-0.84375 0.448969 1.21875
-0.84375 0.474515 1.40625
-0.84375 0.448776 1.46875
-0.84375 0.44876 1.53125
-0.84375 0.448744 1.59375
-0.84375 0.448727 1.65625
-0.84375 0.448711 1.71875
-0.84375 0.448702 1.78125
-0.84375 0.486177 1.96875
-0.84375 0.454496 2.03125
-0.84375 0.448612 2.09375
-0.84375 0.448596 2.15625
-0.84375 0.448581 2.21875
-0.84375 0.448565 2.28125
-0.84375 0.448549 2.34375
-0.84375 0.465633 2.53125
-0.84375 0.448646 2.59375
-0.84375 0.44847 2.65625
-0.84375 0.448451 2.71875
-0.84375 0.448432 2.78125
-0.84375 0.448415 2.84375
-0.84375 0.448406 2.90625
-0.84375 0.460565 3.03125
-0.84375 0.448558 3.09375
-0.84375 0.448334 3.15625
-0.84375 0.448316 3.21875
-0.84375 0.448298 3.28125
-0.84375 0.448283 3.34375
-0.84375 0.448273 3.40625
-0.84375 0.461842 3.53125
-0.84375 0.450647 3.59375
-0.84375 0.448203 3.65625
-0.84375 0.448187 3.71875
-0.84375 0.448172 3.78125
-0.84375 0.448156 3.84375
-0.84375 0.448145 3.90625
-0.84375 0.448127 3.96875
-0.84375 0.456955 4.15625
-0.84375 0.448055 4.21875
-0.84375 0.448031 4.28125
-0.84375 0.448016 4.34375
-0.84375 0.448 4.40625
-0.84375 0.447986 4.46875
-0.84375 0.461936 4.65625
-0.84375 0.452055 4.71875
-0.84375 0.447903 4.78125
-0.84375 0.447884 4.90625
-0.84375 0.447864 4.96875
-0.84375 0.447844 5.03125
-0.84375 0.447824 5.09375
-0.84375 0.447803 5.15625
-0.84375 0.447781 5.28125
-0.8125 0.449736 1.1875
-0.78125 0.448864 1.09375
-0.78125 0.448851 1.15625
-0.78125 0.448928 1.21875
-0.78125 0.474469 1.40625
-0.78125 0.448772 1.46875
-0.78125 0.448756 1.53125
-0.78125 0.448741 1.59375
-0.78125 0.448725 1.65625
-0.78125 0.448709 1.71875
-0.78125 0.448699 1.78125
-0.78125 0.530724 1.96875
-0.78125 0.454513 2.03125
-0.78125 0.448609 2.09375
-0.78125 0.448593 2.15625
-0.78125 0.448578 2.21875
-0.78125 0.448561 2.28125
-0.78125 0.448546 2.34375
-0.78125 0.465598 2.53125
-0.78125 0.44865 2.59375
-0.78125 0.448465 2.65625
-0.78125 0.448447 2.71875
-0.78125 0.448428 2.78125
-0.78125 0.448413 2.84375
-0.78125 0.448403 2.90625
-0.78125 0.460514 3.03125
-0.78125 0.448562 3.09375
-0.78125 0.44833 3.15625
-0.78125 0.448312 3.21875
-0.78125 0.448294 3.28125
-0.78125 0.44828 3.34375
-0.78125 0.44827 3.40625
-0.78125 0.46185 3.53125
-0.78125 0.450509 3.59375
-0.78125 0.4482 3.65625
-0.78125 0.448184 3.71875
-0.78125 0.448169 3.78125
-0.78125 0.448152 3.84375
-0.78125 0.448141 3.90625
-0.78125 0.448122 3.96875
-0.78125 0.456962 4.15625
-0.78125 0.448051 4.21875
-0.78125 0.448029 4.28125
-0.78125 0.448013 4.34375
-0.78125 0.447999 4.40625
-0.78125 0.447985 4.46875
-0.78125 0.46193 4.65625
-0.78125 0.451913 4.71875
-0.78125 0.447898 4.78125
-0.78125 0.447879 4.90625
-0.78125 0.447859 4.96875
-0.78125 0.44784 5.03125
-0.78125 0.447819 5.09375
-0.78125 0.447798 5.15625
-0.78125 0.447777 5.28125
-0.75 0.448813 3.75
-0.75 0.497094 7.75
-0.71875 0.448891 0.96875
-0.71875 0.448879 1.03125
-0.71875 0.448868 1.09375
-0.71875 0.44885 1.15625
-0.71875 0.448923 1.21875
-0.71875 0.479731 1.40625
-0.71875 0.481477 1.46875
-0.71875 0.490427 1.53125
-0.71875 0.502478 1.59375
-0.71875 0.513248 1.65625
-0.71875 0.519569 1.71875
-0.71875 0.49613 1.78125
-0.71875 0.522294 1.96875
-0.71875 0.454487 2.03125
-0.71875 0.448606 2.09375
-0.71875 0.44859 2.15625
-0.71875 0.448575 2.21875
-0.71875 0.448558 2.28125
-0.71875 0.448542 2.34375
-0.71875 0.465611 2.53125
-0.71875 0.448648 2.59375
-0.71875 0.448461 2.65625
-0.71875 0.448443 2.71875
-0.71875 0.448425 2.78125
-0.71875 0.44841 2.84375
-0.71875 0.4484 2.90625
-0.71875 0.460584 3.03125
-0.71875 0.448571 3.09375
-0.71875 0.448327 3.15625
-0.71875 0.448309 3.21875
-0.71875 0.448291 3.28125
-0.71875 0.448276 3.34375
-0.71875 0.448266 3.40625
-0.71875 0.461859 3.53125
-0.71875 0.450654 3.59375
-0.71875 0.448196 3.65625
-0.71875 0.448181 3.71875
-0.71875 0.448165 3.78125
-0.71875 0.448149 3.84375
-0.71875 0.448137 3.90625
-0.71875 0.448119 3.96875
-0.71875 0.456969 4.15625
-0.71875 0.448049 4.21875
-0.71875 0.448026 4.28125
-0.71875 0.448012 4.34375
-0.71875 0.447998 4.40625
-0.71875 0.447983 4.46875
-0.71875 0.461925 4.65625
-0.71875 0.452195 4.71875
-0.71875 0.447893 4.78125
-0.71875 0.447874 4.90625
-0.71875 0.447854 4.96875
-0.71875 0.447835 5.03125
-0.71875 0.447814 5.09375
-0.71875 0.447793 5.15625
-0.71875 0.447772 5.28125
-0.71875 0.497548 6.15625
-0.71875 0.49752 6.28125
-0.71875 0.497491 6.34375
-0.6875 0.44889 0.9375
-0.6875 0.449746 1.1875
-0.6875 0.448764 1.4375
-0.6875 0.4487 1.6875
-0.6875 0.466596 1.9375
-0.6875 0.448571 2.1875
-0.6875 0.448539 2.3125
-0.6875 0.448439 2.6875
-0.6875 0.448402 2.9375
-0.6875 0.448306 3.1875
-0.6875 0.448268 3.4375
-0.6875 0.448183 3.6875
-0.6875 0.448113 3.9375
-0.6875 0.448042 4.1875
-0.6875 0.447984 4.4375
-0.6875 0.447913 4.6875
-0.6875 0.447856 4.9375
-0.6875 0.447796 5.1875
-0.6875 0.447774 5.3125
-0.6875 0.497601 5.9375
-0.6875 0.497461 6.4375
-0.6875 0.497399 6.6875
-0.6875 0.497331 6.9375
-0.6875 0.497258 7.1875
-0.6875 0.49722 7.4375
-0.6875 0.497138 7.6875
-0.6875 0.497093 7.8125
-0.65625 0.448907 0.90625
-0.65625 0.448898 0.96875
-0.65625 0.44888 1.03125
-0.65625 0.448866 1.09375
-0.65625 0.448848 1.15625
-0.65625 0.448925 1.21875
-0.65625 0.497736 1.96875
-0.65625 0.454447 2.03125
-0.65625 0.448603 2.09375
-0.65625 0.448587 2.15625
-0.65625 0.448572 2.21875
-0.65625 0.448555 2.28125
-0.65625 0.448538 2.34375
-0.65625 0.465623 2.53125
-0.65625 0.448647 2.59375
-0.65625 0.448457 2.65625
-0.65625 0.448439 2.71875
-0.65625 0.448422 2.78125
-0.65625 0.448407 2.84375
-0.65625 0.448398 2.90625
-0.65625 0.460594 3.03125
-0.65625 0.44856 3.09375
-0.65625 0.448323 3.15625
-0.65625 0.448306 3.21875
-0.65625 0.448287 3.28125
-0.65625 0.448273 3.34375
-0.65625 0.448263 3.40625
-0.65625 0.461868 3.53125
-0.65625 0.450658 3.59375
-0.65625 0.448193 3.65625
-0.65625 0.448178 3.71875
-0.65625 0.448162 3.78125
-0.65625 0.448145 3.84375
-0.65625 0.448133 3.90625
-0.65625 0.448114 3.96875
-0.65625 0.456976 4.15625
-0.65625 0.448045 4.21875
-0.65625 0.448024 4.28125
-0.65625 0.44801 4.34375
-0.65625 0.447996 4.40625
-0.65625 0.447982 4.46875
-0.65625 0.461919 4.65625
-0.65625 0.451921 4.71875
-0.65625 0.447888 4.78125
-0.65625 0.447869 4.90625
-0.65625 0.44785 4.96875
-0.65625 0.44783 5.03125
-0.65625 0.44781 5.09375
-0.65625 0.447789 5.15625
-0.65625 0.447768 5.28125
-0.65625 0.497622 5.84375
-0.65625 0.497598 5.96875
-0.65625 0.497573 6.03125
-0.65625 0.497546 6.15625
-0.65625 0.497518 6.28125
-0.65625 0.497489 6.34375
-0.65625 0.497459 6.46875
-0.65625 0.497429 6.59375
-0.65625 0.497397 6.71875
-0.65625 0.497364 6.84375
-0.65625 0.497329 6.96875
-0.65625 0.497294 7.09375
-0.65625 0.497256 7.21875
-0.65625 0.497218 7.40625
-0.65625 0.497177 7.53125
-0.65625 0.497135 7.71875
-0.65625 0.497091 7.84375
-0.625 0.44889 0.875
-0.625 0.4976 5.875
-0.625 0.497331 6.875
-0.625 0.497093 7.875
-0.59375 0.455499 0.84375
-0.59375 0.449819 0.90625
-0.59375 0.448891 0.96875
-0.59375 0.448877 1.03125
-0.59375 0.44886 1.09375
-0.59375 0.448847 1.15625
-0.59375 0.448921 1.21875
-0.59375 0.49604 1.46875
-0.59375 0.461132 1.53125
-0.59375 0.460734 1.59375
-0.59375 0.460576 1.65625
-0.59375 0.461413 1.71875
-0.59375 0.460824 1.78125
-0.59375 0.481255 1.96875
-0.59375 0.454477 2.03125
-0.59375 0.448601 2.09375
-0.59375 0.448584 2.15625
-0.59375 0.448569 2.21875
-0.59375 0.448551 2.28125
-0.59375 0.448535 2.34375
-0.59375 0.465692 2.53125
-0.59375 0.448649 2.59375
-0.59375 0.448453 2.65625
-0.59375 0.448436 2.71875
-0.59375 0.448418 2.78125
-0.59375 0.448404 2.84375
-0.59375 0.448394 2.90625
-0.59375 0.461446 3.03125
-0.59375 0.450226 3.09375
-0.59375 0.450119 3.15625
-0.59375 0.450071 3.21875
-0.59375 0.450218 3.28125
-0.59375 0.450499 3.34375
-0.59375 0.450165 3.40625
-0.59375 0.476308 3.53125
-0.59375 0.45068 3.59375
-0.59375 0.448189 3.65625
-0.59375 0.448174 3.71875
-0.59375 0.448159 3.78125
-0.59375 0.448141 3.84375
-0.59375 0.448129 3.90625
-0.59375 0.44811 3.96875
-0.59375 0.456983 4.15625
-0.59375 0.448043 4.21875
-0.59375 0.448022 4.28125
-0.59375 0.448009 4.34375
-0.59375 0.447995 4.40625
-0.59375 0.447981 4.46875
-0.59375 0.461998 4.65625
-0.59375 0.454542 4.71875
-0.59375 0.451378 4.78125
-0.59375 0.453657 4.84375
-0.59375 0.450774 4.90625
-0.59375 0.451629 4.96875
-0.59375 0.451422 5.03125
-0.59375 0.45092 5.09375
-0.59375 0.451475 5.15625
-0.59375 0.452915 5.21875
-0.59375 0.450624 5.28125
-0.59375 0.552727 5.40625
-0.59375 0.497712 5.53125
-0.59375 0.49769 5.59375
-0.59375 0.497667 5.65625
-0.59375 0.497644 5.78125
-0.59375 0.49762 5.84375
-0.59375 0.497595 5.96875
-0.59375 0.497569 6.03125
-0.59375 0.497542 6.15625
-0.59375 0.497514 6.28125
-0.59375 0.497486 6.34375
-0.59375 0.497456 6.46875
-0.59375 0.497425 6.59375
-0.59375 0.497393 6.71875
-0.59375 0.49736 6.84375
-0.59375 0.497326 6.96875
-0.59375 0.49729 7.09375
-0.59375 0.497253 7.21875
-0.59375 0.497214 7.40625
-0.59375 0.497174 7.53125
-0.59375 0.497132 7.71875
-0.59375 0.497088 7.84375
-0.5625 0.497668 5.6875
-0.5625 0.497513 6.1875
-0.53125 0.455475 0.84375
-0.53125 0.449955 0.90625
-0.53125 0.448884 0.96875
-0.53125 0.448874 1.03125
-0.53125 0.448854 1.09375
-0.53125 0.448843 1.15625
-0.53125 0.448925 1.21875
-0.53125 0.485084 1.46875
-0.53125 0.450731 1.53125
-0.53125 0.450737 1.59375
-0.53125 0.450724 1.65625
-0.53125 0.450725 1.71875
-0.53125 0.450684 1.78125
-0.53125 0.450739 1.84375
-0.53125 0.4781 1.96875
-0.53125 0.454478 2.03125
-0.53125 0.448598 2.09375
-0.53125 0.448581 2.15625
-0.53125 0.448565 2.21875
-0.53125 0.448547 2.28125
-0.53125 0.448531 2.34375
-0.53125 0.465647 2.53125
-0.53125 0.448641 2.59375
-0.53125 0.448449 2.65625
-0.53125 0.448433 2.71875
-0.53125 0.448416 2.78125
-0.53125 0.448401 2.84375
-0.53125 0.448392 2.90625
-0.53125 0.468933 3.03125
-0.53125 0.46685 3.09375
-0.53125 0.471981 3.15625
-0.53125 0.474046 3.21875
-0.53125 0.482115 3.28125
-0.53125 0.482627 3.34375
-0.53125 0.487903 3.40625
-0.53125 0.499958 3.53125
-0.53125 0.450602 3.59375
-0.53125 0.448187 3.65625
-0.53125 0.448172 3.71875
-0.53125 0.448155 3.78125
-0.53125 0.448137 3.84375
-0.53125 0.448125 3.90625
-0.53125 0.448106 3.96875
-0.53125 0.457085 4.15625
-0.53125 0.448434 4.21875
-0.53125 0.448634 4.28125
-0.53125 0.448611 4.34375
-0.53125 0.448888 4.40625
-0.53125 0.448833 4.46875
-0.53125 0.451958 4.53125
-0.53125 0.466644 4.71875
-0.53125 0.467649 4.78125
-0.53125 0.469219 4.84375
-0.53125 0.474526 4.90625
-0.53125 0.477752 4.96875
-0.53125 0.483211 5.03125
-0.53125 0.485687 5.09375
-0.53125 0.496454 5.15625
-0.53125 0.497883 5.21875
-0.53125 0.468438 5.28125
-0.53125 0.54906 5.40625
-0.53125 0.49771 5.53125
-0.53125 0.497688 5.59375
-0.53125 0.497665 5.65625
-0.53125 0.497642 5.78125
-0.53125 0.497617 5.84375
-0.53125 0.497592 5.96875
-0.53125 0.497566 6.03125
-0.53125 0.497539 6.15625
-0.53125 0.497511 6.21875
-0.53125 0.497483 6.34375
-0.53125 0.497453 6.46875
-0.53125 0.497422 6.59375
-0.53125 0.49739 6.71875
-0.53125 0.497357 6.84375
-0.53125 0.497322 6.96875
-0.53125 0.497287 7.09375
-0.53125 0.497249 7.21875
-0.53125 0.497211 7.40625
-0.53125 0.497171 7.53125
-0.53125 0.497129 7.71875
-0.53125 0.497085 7.84375
-0.46875 0.455481 0.84375
-0.46875 0.449978 0.90625
-0.46875 0.448918 0.96875
-0.46875 0.448904 1.03125
-0.46875 0.448886 1.09375
-0.46875 0.448871 1.15625
-0.46875 0.448951 1.21875
-0.46875 0.543034 1.46875
-0.46875 0.448741 1.53125
-0.46875 0.448725 1.59375
-0.46875 0.448708 1.65625
-0.46875 0.448691 1.71875
-0.46875 0.448675 1.78125
-0.46875 0.449819 1.84375
-0.46875 0.478125 1.96875
-0.46875 0.454435 2.03125
-0.46875 0.448595 2.09375
-0.46875 0.448578 2.15625
-0.46875 0.448562 2.21875
-0.46875 0.448544 2.28125
-0.46875 0.448528 2.34375
-0.46875 0.465657 2.53125
-0.46875 0.448643 2.59375
-0.46875 0.448446 2.65625
-0.46875 0.44843 2.71875
-0.46875 0.448413 2.78125
-0.46875 0.448398 2.84375
-0.46875 0.448517 2.90625
-0.46875 0.501532 3.53125
-0.46875 0.450669 3.59375
-0.46875 0.448183 3.65625
-0.46875 0.448168 3.71875
-0.46875 0.448151 3.78125
-0.46875 0.448133 3.84375
-0.46875 0.448121 3.90625
-0.46875 0.448102 3.96875
-0.46875 0.461078 4.15625
-0.46875 0.461657 4.21875
-0.46875 0.46114 4.28125
-0.46875 0.467156 4.34375
-0.46875 0.468782 4.40625
-0.46875 0.472798 4.46875
-0.46875 0.466817 4.53125
-0.46875 0.537239 5.40625
-0.46875 0.497707 5.53125
-0.46875 0.497685 5.59375
-0.46875 0.497661 5.65625
-0.46875 0.497638 5.78125
-0.46875 0.497613 5.84375
-0.46875 0.497588 5.96875
-0.46875 0.497562 6.03125
-0.46875 0.497535 6.15625
-0.46875 0.497507 6.21875
-0.46875 0.497479 6.34375
-0.46875 0.497449 6.46875
-0.46875 0.497418 6.59375
-0.46875 0.497386 6.71875
-0.46875 0.497353 6.84375
-0.46875 0.497319 6.96875
-0.46875 0.497283 7.09375
-0.46875 0.497246 7.21875
-0.46875 0.497207 7.40625
-0.46875 0.497167 7.53125
-0.46875 0.497125 7.71875
-0.46875 0.497081 7.84375
-0.4375 0.44888 0.9375
-0.4375 0.449769 1.1875
-0.4375 0.448752 1.4375
-0.4375 0.448686 1.6875
-0.4375 0.466548 1.9375
-0.4375 0.448557 2.1875
-0.4375 0.448525 2.3125
-0.4375 0.448426 2.6875
-0.4375 0.44956 2.9375
-0.4375 0.44817 3.6875
-0.4375 0.448097 3.9375
-0.4375 0.452596 4.1875
-0.4375 0.453769 4.4375
-0.4375 0.450652 4.9375
-0.4375 0.452061 5.1875
-0.4375 0.449076 5.3125
-0.4375 0.497663 5.6875
-0.4375 0.49759 5.9375
-0.4375 0.497509 6.1875
-0.4375 0.497451 6.4375
-0.4375 0.497388 6.6875
-0.4375 0.497321 6.9375
-0.4375 0.497248 7.1875
-0.4375 0.497209 7.4375
-0.4375 0.497127 7.6875
-0.4375 0.497083 7.8125
-0.40625 0.456211 0.84375
-0.40625 0.458247 0.90625
-0.40625 0.467223 0.96875
-0.40625 0.47912 1.03125
-0.40625 0.492643 1.09375
-0.40625 0.506039 1.15625
-0.40625 0.514771 1.21875
-0.40625 0.595818 1.46875
-0.40625 0.448737 1.53125
-0.40625 0.448721 1.59375
-0.40625 0.448704 1.65625
-0.40625 0.448687 1.71875
-0.40625 0.448671 1.78125
-0.40625 0.449827 1.84375
-0.40625 0.478011 1.96875
-0.40625 0.454445 2.03125
-0.40625 0.448592 2.09375
-0.40625 0.448575 2.15625
-0.40625 0.448558 2.21875
-0.40625 0.44854 2.28125
-0.40625 0.448524 2.34375
-0.40625 0.465888 2.53125
-0.40625 0.44899 2.59375
-0.40625 0.44877 2.65625
-0.40625 0.448758 2.71875
-0.40625 0.448697 2.78125
-0.40625 0.44877 2.84375
-0.40625 0.449033 2.90625
-0.40625 0.535001 3.53125
-0.40625 0.450673 3.59375
-0.40625 0.44818 3.65625
-0.40625 0.448164 3.71875
-0.40625 0.448147 3.78125
-0.40625 0.448129 3.84375
-0.40625 0.448117 3.90625
-0.40625 0.448098 3.96875
-0.40625 0.490295 4.65625
-0.40625 0.480622 4.71875
-0.40625 0.452753 4.78125
-0.40625 0.452729 4.84375
-0.40625 0.451861 4.90625
-0.40625 0.454839 4.96875
-0.40625 0.452148 5.03125
-0.40625 0.451155 5.15625
-0.40625 0.464411 5.21875
-0.40625 0.461265 5.28125
-0.40625 0.497636 5.78125
-0.40625 0.497611 5.84375
-0.40625 0.497585 5.96875
-0.40625 0.497559 6.03125
-0.40625 0.497532 6.15625
-0.40625 0.497504 6.21875
-0.40625 0.497476 6.34375
-0.40625 0.497446 6.46875
-0.40625 0.497415 6.59375
-0.40625 0.497383 6.71875
-0.40625 0.49735 6.84375
-0.40625 0.497316 6.96875
-0.40625 0.49728 7.09375
-0.40625 0.497242 7.21875
-0.40625 0.497204 7.40625
-0.40625 0.497164 7.53125
-0.40625 0.497122 7.71875
-0.40625 0.497078 7.84375
-0.375 0.44956 2.875
-0.34375 0.595271 1.46875
-0.34375 0.448733 1.53125
-0.34375 0.448717 1.59375
-0.34375 0.4487 1.65625
-0.34375 0.448684 1.71875
-0.34375 0.448667 1.78125
-0.34375 0.449834 1.84375
-0.34375 0.478049 1.96875
-0.34375 0.454447 2.03125
-0.34375 0.448588 2.09375
-0.34375 0.448571 2.15625
-0.34375 0.448554 2.21875
-0.34375 0.448537 2.28125
-0.34375 0.44852 2.34375
-0.34375 0.471309 2.53125
-0.34375 0.46575 2.59375
-0.34375 0.46802 2.65625
-0.34375 0.476748 2.71875
-0.34375 0.471471 2.78125
-0.34375 0.482974 2.84375
-0.34375 0.488369 2.90625
-0.34375 0.524148 3.09375
-0.34375 0.457418 3.15625
-0.34375 0.457239 3.21875
-0.34375 0.457145 3.28125
-0.34375 0.457213 3.34375
-0.34375 0.456488 3.40625
-0.34375 0.457389 3.46875
-0.34375 0.473836 3.53125
-0.34375 0.450677 3.59375
-0.34375 0.448177 3.65625
-0.34375 0.44816 3.71875
-0.34375 0.448143 3.78125
-0.34375 0.448125 3.84375
-0.34375 0.448113 3.90625
-0.34375 0.448094 3.96875
-0.34375 0.485331 4.65625
-0.34375 0.449419 4.71875
-0.34375 0.447883 4.78125
-0.34375 0.447913 4.90625
-0.34375 0.447882 4.96875
-0.34375 0.447946 5.03125
-0.34375 0.447817 5.09375
-0.34375 0.447782 5.15625
-0.34375 0.44776 5.28125
-0.34375 0.497581 5.96875
-0.34375 0.497556 6.03125
-0.34375 0.497529 6.15625
-0.34375 0.497501 6.21875
-0.34375 0.497472 6.34375
-0.34375 0.497442 6.46875
-0.34375 0.497412 6.59375
-0.34375 0.49738 6.71875
-0.34375 0.497346 6.84375
-0.34375 0.497312 6.96875
-0.34375 0.497277 7.09375
-0.34375 0.497239 7.21875
-0.34375 0.4972 7.40625
-0.34375 0.49716 7.53125
-0.34375 0.497119 7.71875
-0.34375 0.497075 7.84375
-0.3125 0.44863 3.1875
-0.3125 0.448504 3.4375
-0.3125 0.448553 4.6875
-0.28125 0.586018 1.46875
-0.28125 0.44873 1.53125
-0.28125 0.448713 1.59375
-0.28125 0.448696 1.65625
-0.28125 0.44868 1.71875
-0.28125 0.448664 1.78125
-0.28125 0.449841 1.84375
-0.28125 0.478824 1.96875
-0.28125 0.454405 2.03125
-0.28125 0.448585 2.09375
-0.28125 0.448567 2.15625
-0.28125 0.448551 2.21875
-0.28125 0.448533 2.28125
-0.28125 0.448517 2.34375
-0.28125 0.503828 3.09375
-0.28125 0.448874 3.15625
-0.28125 0.448995 3.21875
-0.28125 0.448767 3.28125
-0.28125 0.448979 3.34375
-0.28125 0.448666 3.40625
-0.28125 0.448687 3.46875
-0.28125 0.458443 3.53125
-0.28125 0.450537 3.59375
-0.28125 0.448173 3.65625
-0.28125 0.448156 3.71875
-0.28125 0.448139 3.78125
-0.28125 0.448121 3.84375
-0.28125 0.448108 3.90625
-0.28125 0.448089 3.96875
-0.28125 0.482927 4.65625
-0.28125 0.449314 4.71875
-0.28125 0.447878 4.78125
-0.28125 0.447859 4.90625
-0.28125 0.447839 4.96875
-0.28125 0.44782 5.03125
-0.28125 0.447798 5.09375
-0.28125 0.447777 5.15625
-0.28125 0.447755 5.28125
-0.28125 0.497578 5.96875
-0.28125 0.497552 6.03125
-0.28125 0.497525 6.15625
-0.28125 0.497498 6.21875
-0.28125 0.497469 6.34375
-0.28125 0.497439 6.46875
-0.28125 0.497409 6.59375
-0.28125 0.497376 6.71875
-0.28125 0.497343 6.84375
-0.28125 0.497309 6.96875
-0.28125 0.497273 7.09375
-0.28125 0.497236 7.21875
-0.28125 0.497198 7.40625
-0.28125 0.497157 7.53125
-0.28125 0.497115 7.71875
-0.28125 0.497072 7.84375
-0.21875 0.518915 1.46875
-0.21875 0.448726 1.53125
-0.21875 0.44871 1.59375
-0.21875 0.448693 1.65625
-0.21875 0.448676 1.71875
-0.21875 0.448661 1.78125
-0.21875 0.479404 1.96875
-0.21875 0.454429 2.03125
-0.21875 0.448582 2.09375
-0.21875 0.448564 2.15625
-0.21875 0.448547 2.21875
-0.21875 0.448529 2.28125
-0.21875 0.448513 2.34375
-0.21875 0.470945 2.53125
-0.21875 0.460685 2.59375
-0.21875 0.458845 2.65625
-0.21875 0.457592 2.71875
-0.21875 0.458448 2.78125
-0.21875 0.458252 2.84375
-0.21875 0.45923 2.90625
-0.21875 0.465315 3.09375
-0.21875 0.448303 3.15625
-0.21875 0.448286 3.21875
-0.21875 0.448269 3.28125
-0.21875 0.448255 3.34375
-0.21875 0.448241 3.40625
-0.21875 0.448228 3.46875
-0.21875 0.457656 3.53125
-0.21875 0.450702 3.59375
-0.21875 0.448169 3.65625
-0.21875 0.448152 3.71875
-0.21875 0.448135 3.78125
-0.21875 0.448117 3.84375
-0.21875 0.448104 3.90625
-0.21875 0.448086 3.96875
-0.21875 0.458311 4.15625
-0.21875 0.458705 4.21875
-0.21875 0.456596 4.28125
-0.21875 0.460126 4.34375
-0.21875 0.45842 4.40625
-0.21875 0.458557 4.46875
-0.21875 0.463422 4.65625
-0.21875 0.449387 4.71875
-0.21875 0.447873 4.78125
-0.21875 0.447854 4.90625
-0.21875 0.447834 4.96875
-0.21875 0.447814 5.03125
-0.21875 0.447793 5.09375
-0.21875 0.447772 5.15625
-0.21875 0.44775 5.28125
-0.21875 0.497574 5.96875
-0.21875 0.497549 6.03125
-0.21875 0.497522 6.15625
-0.21875 0.497494 6.21875
-0.21875 0.497465 6.34375
-0.21875 0.497435 6.46875
-0.21875 0.497405 6.59375
-0.21875 0.497373 6.71875
-0.21875 0.49734 6.84375
-0.21875 0.497305 6.96875
-0.21875 0.49727 7.09375
-0.21875 0.497232 7.21875
-0.21875 0.497193 7.40625
-0.21875 0.497153 7.53125
-0.21875 0.497111 7.71875
-0.21875 0.497068 7.84375
-0.1875 0.448737 1.4375
-0.1875 0.448671 1.6875
-0.1875 0.466501 1.9375
-0.1875 0.448542 2.1875
-0.1875 0.44851 2.3125
-0.1875 0.450511 2.6875
-0.1875 0.451425 2.9375
-0.1875 0.448284 3.1875
-0.1875 0.44823 3.4375
-0.1875 0.448154 3.6875
-0.1875 0.44808 3.9375
-0.1875 0.448172 4.1875
-0.1875 0.449543 4.4375
-0.1875 0.447894 4.6875
-0.1875 0.447837 4.9375
-0.1875 0.447774 5.1875
-0.1875 0.447753 5.3125
-0.1875 0.497577 5.9375
-0.1875 0.497496 6.1875
-0.1875 0.497437 6.4375
-0.1875 0.497374 6.6875
-0.1875 0.497307 6.9375
-0.1875 0.497234 7.1875
-0.1875 0.497196 7.4375
-0.1875 0.497113 7.6875
-0.1875 0.497069 7.8125
-0.15625 0.459086 0.90625
-0.15625 0.459841 0.96875
-0.15625 0.459808 1.03125
-0.15625 0.459831 1.09375
-0.15625 0.459779 1.15625
-0.15625 0.459814 1.21875
-0.15625 0.459794 1.28125
-0.15625 0.457518 1.34375
-0.15625 0.471375 1.46875
-0.15625 0.448722 1.53125
-0.15625 0.448706 1.59375
-0.15625 0.448689 1.65625
-0.15625 0.448672 1.71875
-0.15625 0.448657 1.78125
-0.15625 0.480872 1.96875
-0.15625 0.45963 2.03125
-0.15625 0.450924 2.09375
-0.15625 0.450939 2.15625
-0.15625 0.45093 2.21875
-0.15625 0.450888 2.28125
-0.15625 0.450743 2.34375
-0.15625 0.466856 2.53125
-0.15625 0.449177 2.59375
-0.15625 0.449028 2.65625
-0.15625 0.448899 2.71875
-0.15625 0.448949 2.78125
-0.15625 0.44901 2.84375
-0.15625 0.448739 2.90625
-0.15625 0.462038 3.09375
-0.15625 0.448298 3.15625
-0.15625 0.448281 3.21875
-0.15625 0.448264 3.28125
-0.15625 0.44825 3.34375
-0.15625 0.448238 3.40625
-0.15625 0.448225 3.46875
-0.15625 0.45775 3.53125
-0.15625 0.451168 3.59375
-0.15625 0.448648 3.65625
-0.15625 0.448982 3.71875
-0.15625 0.448608 3.78125
-0.15625 0.448977 3.84375
-0.15625 0.44889 3.90625
-0.15625 0.448564 3.96875
-0.15625 0.456095 4.15625
-0.15625 0.448839 4.21875
-0.15625 0.448744 4.28125
-0.15625 0.448888 4.34375
-0.15625 0.448763 4.40625
-0.15625 0.448787 4.46875
-0.15625 0.458645 4.65625
-0.15625 0.449162 4.71875
-0.15625 0.447868 4.78125
-0.15625 0.447849 4.90625
-0.15625 0.447829 4.96875
-0.15625 0.447809 5.03125
-0.15625 0.447789 5.09375
-0.15625 0.447768 5.15625
-0.15625 0.447746 5.28125
-0.15625 0.497571 5.96875
-0.15625 0.497546 6.03125
-0.15625 0.497519 6.15625
-0.15625 0.497491 6.21875
-0.15625 0.497462 6.34375
-0.15625 0.497432 6.46875
-0.15625 0.497402 6.59375
-0.15625 0.49737 6.71875
-0.15625 0.497336 6.84375
-0.15625 0.497302 6.96875
-0.15625 0.497267 7.09375
-0.15625 0.497229 7.21875
-0.15625 0.497191 7.40625
-0.15625 0.497151 7.53125
-0.15625 0.497109 7.71875
-0.15625 0.497065 7.84375
-0.09375 0.455047 0.84375
-0.09375 0.450707 0.90625
-0.09375 0.449699 0.96875
-0.09375 0.449674 1.03125
-0.09375 0.449672 1.09375
-0.09375 0.449667 1.15625
-0.09375 0.449637 1.21875
-0.09375 0.449631 1.28125
-0.09375 0.450454 1.34375
-0.09375 0.466585 1.46875
-0.09375 0.448718 1.53125
-0.09375 0.448702 1.59375
-0.09375 0.448686 1.65625
-0.09375 0.448669 1.71875
-0.09375 0.448653 1.78125
-0.09375 0.476943 2.03125
-0.09375 0.470436 2.09375
-0.09375 0.474244 2.15625
-0.09375 0.479069 2.21875
-0.09375 0.485408 2.28125
-0.09375 0.464712 2.34375
-0.09375 0.526203 2.53125
-0.09375 0.448546 2.59375
-0.09375 0.448427 2.65625
-0.09375 0.448408 2.71875
-0.09375 0.448389 2.78125
-0.09375 0.448372 2.84375
-0.09375 0.448361 2.90625
-0.09375 0.462076 3.09375
-0.09375 0.448293 3.15625
-0.09375 0.448277 3.21875
-0.09375 0.448259 3.28125
-0.09375 0.448246 3.34375
-0.09375 0.448233 3.40625
-0.09375 0.448221 3.46875
-0.09375 0.457581 3.59375
-0.09375 0.459094 3.65625
-0.09375 0.461133 3.71875
-0.09375 0.461308 3.78125
-0.09375 0.461155 3.84375
-0.09375 0.460238 3.90625
-0.09375 0.471941 3.96875
-0.09375 0.470941 4.03125
-0.09375 0.473427 4.15625
-0.09375 0.448021 4.21875
-0.09375 0.447996 4.28125
-0.09375 0.44798 4.34375
-0.09375 0.447963 4.40625
-0.09375 0.447945 4.46875
-0.09375 0.4582 4.65625
-0.09375 0.449377 4.71875
-0.09375 0.447863 4.78125
-0.09375 0.447844 4.90625
-0.09375 0.447824 4.96875
-0.09375 0.447804 5.03125
-0.09375 0.447783 5.09375
-0.09375 0.447763 5.15625
-0.09375 0.447741 5.28125
-0.09375 0.497568 5.96875
-0.09375 0.497542 6.03125
-0.09375 0.497515 6.15625
-0.09375 0.497487 6.21875
-0.09375 0.497458 6.34375
-0.09375 0.497429 6.46875
-0.09375 0.497398 6.59375
-0.09375 0.497366 6.71875
-0.09375 0.497333 6.84375
-0.09375 0.497299 6.96875
-0.09375 0.497263 7.09375
-0.09375 0.497226 7.21875
-0.09375 0.497187 7.40625
-0.09375 0.497147 7.53125
-0.09375 0.497105 7.71875
-0.09375 0.497061 7.84375
-0.0625 0.449679 0.9375
-0.0625 0.449857 1.1875
-0.03125 0.454708 0.84375
-0.03125 0.449818 0.90625
-0.03125 0.448869 0.96875
-0.03125 0.448849 1.03125
-0.03125 0.448834 1.09375
-0.03125 0.448817 1.15625
-0.03125 0.4488 1.21875
-0.03125 0.448802 1.28125
-0.03125 0.44981 1.34375
-0.03125 0.466418 1.46875
-0.03125 0.448714 1.53125
-0.03125 0.448698 1.59375
-0.03125 0.448682 1.65625
-0.03125 0.448665 1.71875
-0.03125 0.448649 1.78125
-0.03125 0.53641 2.53125
-0.03125 0.448541 2.59375
-0.03125 0.448423 2.65625
-0.03125 0.448405 2.71875
-0.03125 0.448386 2.78125
-0.03125 0.448369 2.84375
-0.03125 0.448359 2.90625
-0.03125 0.461882 3.09375
-0.03125 0.448288 3.15625
-0.03125 0.448271 3.21875
-0.03125 0.448254 3.28125
-0.03125 0.448242 3.34375
-0.03125 0.44823 3.40625
-0.03125 0.448217 3.46875
-0.03125 0.49011 4.15625
-0.03125 0.448016 4.21875
-0.03125 0.447992 4.28125
-0.03125 0.447976 4.34375
-0.03125 0.447959 4.40625
-0.03125 0.447942 4.46875
-0.03125 0.458195 4.65625
-0.03125 0.449223 4.71875
-0.03125 0.447858 4.78125
-0.03125 0.447839 4.90625
-0.03125 0.447819 4.96875
-0.03125 0.4478 5.03125
-0.03125 0.447779 5.09375
-0.03125 0.447759 5.15625
-0.03125 0.447737 5.28125
-0.03125 0.497565 5.96875
-0.03125 0.497539 6.03125
-0.03125 0.497512 6.15625
-0.03125 0.497484 6.21875
-0.03125 0.497455 6.34375
-0.03125 0.497426 6.46875
-0.03125 0.497395 6.59375
-0.03125 0.497363 6.71875
-0.03125 0.49733 6.84375
-0.03125 0.497296 6.96875
-0.03125 0.497259 7.09375
-0.03125 0.497223 7.21875
-0.03125 0.497184 7.40625
-0.03125 0.497144 7.53125
-0.03125 0.497102 7.71875
-0.03125 0.497058 7.84375
0.03125 0.454695 0.84375
0.03125 0.449811 0.90625
0.03125 0.448859 0.96875
0.03125 0.448846 1.03125
0.03125 0.448826 1.09375
0.03125 0.448812 1.15625
0.03125 0.448796 1.21875
0.03125 0.448797 1.28125
0.03125 0.449813 1.34375
0.03125 0.46644 1.46875
0.03125 0.448711 1.53125
0.03125 0.448695 1.59375
0.03125 0.448678 1.65625
0.03125 0.448662 1.71875
0.03125 0.448646 1.78125
0.03125 0.476204 1.96875
0.03125 0.46505 2.03125
0.03125 0.460226 2.09375
0.03125 0.470309 2.15625
0.03125 0.460793 2.21875
0.03125 0.461568 2.28125
0.03125 0.460375 2.34375
0.03125 0.504411 2.53125
0.03125 0.448542 2.59375
0.03125 0.44842 2.65625
0.03125 0.448402 2.71875
0.03125 0.448383 2.78125
0.03125 0.448366 2.84375
0.03125 0.448355 2.90625
0.03125 0.461992 3.09375
0.03125 0.448283 3.15625
0.03125 0.448267 3.21875
0.03125 0.44825 3.28125
0.03125 0.448238 3.34375
0.03125 0.448226 3.40625
0.03125 0.448213 3.46875
0.03125 0.490119 4.15625
0.03125 0.448013 4.21875
0.03125 0.447988 4.28125
0.03125 0.447971 4.34375
0.03125 0.447954 4.40625
0.03125 0.447939 4.46875
0.03125 0.45819 4.65625
0.03125 0.449368 4.71875
0.03125 0.447852 4.78125
0.03125 0.447834 4.90625
0.03125 0.447814 4.96875
0.03125 0.447795 5.03125
0.03125 0.447774 5.09375
0.03125 0.447753 5.15625
0.03125 0.447732 5.28125
0.03125 0.497561 5.96875
0.03125 0.497535 6.03125
0.03125 0.497509 6.15625
0.03125 0.49748 6.21875
0.03125 0.497452 6.34375
0.03125 0.497422 6.46875
0.03125 0.497391 6.59375
0.03125 0.497359 6.71875
0.03125 0.497326 6.84375
0.03125 0.497291 6.96875
0.03125 0.497256 7.09375
0.03125 0.497219 7.21875
0.03125 0.49718 7.40625
0.03125 0.49714 7.53125
0.03125 0.497098 7.71875
0.03125 0.497054 7.84375
0.0625 0.448855 0.9375
0.0625 0.448789 1.1875
0.0625 0.448722 1.4375
0.0625 0.448656 1.6875
0.0625 0.453072 1.9375
0.0625 0.448525 2.1875
0.0625 0.449327 2.3125
0.0625 0.448397 2.6875
0.0625 0.448357 2.9375
0.0625 0.448265 3.1875
0.0625 0.448215 3.4375
0.0625 0.448006 4.1875
0.0625 0.447941 4.4375
0.0625 0.447873 4.6875
0.0625 0.447816 4.9375
0.0625 0.447756 5.1875
0.0625 0.447734 5.3125
0.0625 0.497563 5.9375
0.0625 0.497482 6.1875
0.0625 0.497424 6.4375
0.0625 0.497361 6.6875
0.0625 0.497293 6.9375
0.0625 0.497221 7.1875
0.0625 0.497182 7.4375
0.0625 0.4971 7.6875
0.0625 0.497056 7.8125
0.09375 0.454675 0.84375
0.09375 0.449808 0.90625
0.09375 0.448852 0.96875
0.09375 0.448842 1.03125
0.09375 0.448822 1.09375
0.09375 0.448808 1.15625
0.09375 0.448791 1.21875
0.09375 0.448794 1.28125
0.09375 0.449816 1.34375
0.09375 0.466182 1.46875
0.09375 0.448707 1.53125
0.09375 0.448691 1.59375
0.09375 0.448675 1.65625
0.09375 0.448658 1.71875
0.09375 0.448642 1.78125
0.09375 0.470444 1.96875
0.09375 0.449663 2.03125
0.09375 0.44904 2.09375
0.09375 0.449096 2.15625
0.09375 0.448999 2.21875
0.09375 0.449107 2.28125
0.09375 0.448999 2.34375
0.09375 0.466196 2.53125
0.09375 0.448542 2.59375
0.09375 0.448418 2.65625
0.09375 0.448399 2.71875
0.09375 0.44838 2.78125
0.09375 0.448363 2.84375
0.09375 0.448352 2.90625
0.09375 0.462001 3.09375
0.09375 0.448278 3.15625
0.09375 0.448262 3.21875
0.09375 0.448246 3.28125
0.09375 0.448235 3.34375
0.09375 0.448222 3.40625
0.09375 0.44821 3.46875
0.09375 0.490128 4.15625
0.09375 0.448008 4.21875
0.09375 0.447984 4.28125
0.09375 0.447967 4.34375
0.09375 0.44795 4.40625
0.09375 0.447937 4.46875
0.09375 0.458185 4.65625
0.09375 0.449284 4.71875
0.09375 0.447848 4.78125
0.09375 0.447829 4.90625
0.09375 0.44781 4.96875
0.09375 0.447791 5.03125
0.09375 0.44777 5.09375
0.09375 0.447749 5.15625
0.09375 0.447728 5.28125
0.09375 0.497558 5.96875
0.09375 0.497532 6.03125
0.09375 0.497505 6.15625
0.09375 0.497478 6.21875
0.09375 0.497449 6.34375
0.09375 0.497419 6.46875
0.09375 0.497388 6.59375
0.09375 0.497356 6.71875
0.09375 0.497323 6.84375
0.09375 0.497288 6.96875
0.09375 0.497253 7.09375
0.09375 0.497216 7.21875
0.09375 0.497177 7.40625
0.09375 0.497137 7.53125
0.09375 0.497095 7.71875
0.09375 0.497051 7.84375
0.125 0.448855 0.875
0.125 0.453008 1.875
0.125 0.448357 2.875
0.125 0.447816 4.875
0.125 0.497563 5.875
0.125 0.497293 6.875
0.125 0.497056 7.875
0.15625 0.454662 0.84375
0.15625 0.449799 0.90625
0.15625 0.448852 0.96875
0.15625 0.448841 1.03125
0.15625 0.44882 1.09375
0.15625 0.448805 1.15625
0.15625 0.448788 1.21875
0.15625 0.448792 1.28125
0.15625 0.44982 1.34375
0.15625 0.466361 1.46875
0.15625 0.448704 1.53125
0.15625 0.448688 1.59375
0.15625 0.448671 1.65625
0.15625 0.448654 1.71875
0.15625 0.448639 1.78125
0.15625 0.470183 1.96875
0.15625 0.449129 2.03125
0.15625 0.448563 2.09375
0.15625 0.448547 2.15625
0.15625 0.448529 2.21875
0.15625 0.448513 2.28125
0.15625 0.448703 2.34375
0.15625 0.465178 2.53125
0.15625 0.448543 2.59375
0.15625 0.448415 2.65625
0.15625 0.448396 2.71875
0.15625 0.448377 2.78125
0.15625 0.44836 2.84375
0.15625 0.448349 2.90625
0.15625 0.462194 3.09375
0.15625 0.448273 3.15625
0.15625 0.448258 3.21875
0.15625 0.448242 3.28125
0.15625 0.44823 3.34375
0.15625 0.448219 3.40625
0.15625 0.448206 3.46875
0.15625 0.490137 4.15625
0.15625 0.448004 4.21875
0.15625 0.44798 4.28125
0.15625 0.447963 4.34375
0.15625 0.447947 4.40625
0.15625 0.447934 4.46875
0.15625 0.4591 4.65625
0.15625 0.454178 4.71875
0.15625 0.452335 4.78125
0.15625 0.454181 4.84375
0.15625 0.450484 4.90625
0.15625 0.455457 4.96875
0.15625 0.452777 5.03125
0.15625 0.450957 5.09375
0.15625 0.454643 5.15625
0.15625 0.455053 5.21875
0.15625 0.452816 5.28125
0.15625 0.497603 5.78125
0.15625 0.497579 5.84375
0.15625 0.497555 5.96875
0.15625 0.497529 6.03125
0.15625 0.497502 6.15625
0.15625 0.497474 6.21875
0.15625 0.497445 6.34375
0.15625 0.497416 6.46875
0.15625 0.497385 6.59375
0.15625 0.497352 6.71875
0.15625 0.497319 6.84375
0.15625 0.497285 6.96875
0.15625 0.497249 7.09375
0.15625 0.497212 7.21875
0.15625 0.497174 7.40625
0.15625 0.497134 7.53125
0.15625 0.497091 7.71875
0.15625 0.497048 7.84375
0.1875 0.497626 5.6875
0.21875 0.454645 0.84375
0.21875 0.449792 0.90625
0.21875 0.44885 0.96875
0.21875 0.448839 1.03125
0.21875 0.448818 1.09375
0.21875 0.448803 1.15625
0.21875 0.448786 1.21875
0.21875 0.44879 1.28125
0.21875 0.449823 1.34375
0.21875 0.46644 1.46875
0.21875 0.448853 1.53125
0.21875 0.448842 1.59375
0.21875 0.448808 1.65625
0.21875 0.448805 1.71875
0.21875 0.448808 1.78125
0.21875 0.469885 1.96875
0.21875 0.449124 2.03125
0.21875 0.448559 2.09375
0.21875 0.448543 2.15625
0.21875 0.448525 2.21875
0.21875 0.448509 2.28125
0.21875 0.448707 2.34375
0.21875 0.46519 2.53125
0.21875 0.448539 2.59375
0.21875 0.448412 2.65625
0.21875 0.448393 2.71875
0.21875 0.448374 2.78125
0.21875 0.448357 2.84375
0.21875 0.448346 2.90625
0.21875 0.461636 3.09375
0.21875 0.448268 3.15625
0.21875 0.448254 3.21875
0.21875 0.448239 3.28125
0.21875 0.448227 3.34375
0.21875 0.448215 3.40625
0.21875 0.448202 3.46875
0.21875 0.490145 4.15625
0.21875 0.447999 4.21875
0.21875 0.447975 4.28125
0.21875 0.447959 4.34375
0.21875 0.447944 4.40625
0.21875 0.447931 4.46875
0.21875 0.514804 5.40625
0.21875 0.497669 5.46875
0.21875 0.497647 5.59375
0.21875 0.497624 5.65625
0.21875 0.497601 5.78125
0.21875 0.497577 5.84375
0.21875 0.497551 5.96875
0.21875 0.497525 6.03125
0.21875 0.497499 6.15625
0.21875 0.497471 6.21875
0.21875 0.497442 6.34375
0.21875 0.497412 6.46875
0.21875 0.497381 6.59375
0.21875 0.49735 6.71875
0.21875 0.497316 6.84375
0.21875 0.497282 6.96875
0.21875 0.497246 7.09375
0.21875 0.497209 7.21875
0.21875 0.497171 7.40625
0.21875 0.497131 7.53125
0.21875 0.497089 7.71875
0.21875 0.497045 7.84375
0.25 0.451679 3.75
0.25 0.497056 7.75
0.28125 0.454625 0.84375
0.28125 0.449785 0.90625
0.28125 0.448849 0.96875
0.28125 0.448831 1.03125
0.28125 0.448816 1.09375
0.28125 0.448799 1.15625
0.28125 0.448784 1.21875
0.28125 0.448788 1.28125
0.28125 0.449826 1.34375
0.28125 0.472314 1.46875
0.28125 0.456029 1.53125
0.28125 0.456198 1.59375
0.28125 0.456164 1.65625
0.28125 0.456125 1.71875
0.28125 0.45605 1.78125
0.28125 0.452186 1.84375
0.28125 0.471423 1.96875
0.28125 0.449112 2.03125
0.28125 0.448556 2.09375
0.28125 0.448539 2.15625
0.28125 0.448521 2.21875
0.28125 0.448505 2.28125
0.28125 0.448696 2.34375
0.28125 0.465417 2.53125
0.28125 0.448538 2.59375
0.28125 0.448409 2.65625
0.28125 0.448391 2.71875
0.28125 0.448371 2.78125
0.28125 0.448354 2.84375
0.28125 0.448343 2.90625
0.28125 0.46249 3.09375
0.28125 0.448532 3.15625
0.28125 0.448526 3.21875
0.28125 0.448464 3.28125
0.28125 0.448596 3.34375
0.28125 0.44849 3.40625
0.28125 0.44826 3.46875
0.28125 0.463805 3.65625
0.28125 0.465805 3.71875
0.28125 0.468146 3.78125
0.28125 0.471636 3.84375
0.28125 0.464416 3.90625
0.28125 0.476232 3.96875
0.28125 0.487947 4.15625
0.28125 0.447996 4.21875
0.28125 0.447971 4.28125
0.28125 0.447955 4.34375
0.28125 0.447942 4.40625
0.28125 0.447928 4.46875
0.28125 0.515912 5.40625
0.28125 0.497666 5.46875
0.28125 0.497644 5.59375
0.28125 0.497621 5.65625
0.28125 0.497597 5.78125
0.28125 0.497573 5.84375
0.28125 0.497548 5.96875
0.28125 0.497522 6.03125
0.28125 0.497495 6.15625
0.28125 0.497467 6.21875
0.28125 0.497439 6.34375
0.28125 0.497409 6.46875
0.28125 0.497378 6.59375
0.28125 0.497346 6.71875
0.28125 0.497313 6.84375
0.28125 0.497278 6.96875
0.28125 0.497243 7.09375
0.28125 0.497205 7.21875
0.28125 0.497167 7.40625
0.28125 0.497127 7.53125
0.28125 0.497084 7.71875
0.28125 0.497041 7.84375
0.3125 0.448842 0.9375
0.3125 0.448777 1.1875
0.3125 0.449936 1.4375
0.3125 0.452713 1.9375
0.3125 0.448515 2.1875
0.3125 0.449141 2.3125
0.3125 0.448386 2.6875
0.3125 0.448345 2.9375
0.3125 0.448248 3.1875
0.3125 0.4482 3.4375
0.3125 0.451338 3.6875
0.3125 0.451133 3.9375
0.3125 0.447989 4.1875
0.3125 0.44793 4.4375
0.3125 0.497623 5.6875
0.3125 0.497549 5.9375
0.3125 0.497469 6.1875
0.3125 0.497411 6.4375
0.3125 0.497348 6.6875
0.3125 0.49728 6.9375
0.3125 0.497207 7.1875
0.3125 0.497169 7.4375
0.3125 0.497086 7.6875
0.3125 0.497043 7.8125
0.34375 0.454612 0.84375
0.34375 0.449777 0.90625
0.34375 0.448845 0.96875
0.34375 0.448823 1.03125
0.34375 0.448811 1.09375
0.34375 0.448794 1.15625
0.34375 0.44878 1.21875
0.34375 0.448784 1.28125
0.34375 0.44983 1.34375
0.34375 0.493787 1.96875
0.34375 0.449113 2.03125
0.34375 0.448551 2.09375
0.34375 0.448535 2.15625
0.34375 0.448517 2.21875
0.34375 0.4485 2.28125
0.34375 0.448708 2.34375
0.34375 0.465226 2.53125
0.34375 0.448538 2.59375
0.34375 0.448406 2.65625
0.34375 0.448388 2.71875
0.34375 0.448368 2.78125
0.34375 0.448351 2.84375
0.34375 0.44834 2.90625
0.34375 0.467967 3.09375
0.34375 0.456 3.15625
0.34375 0.455544 3.21875
0.34375 0.456159 3.28125
0.34375 0.454231 3.34375
0.34375 0.456479 3.40625
0.34375 0.457021 3.46875
0.34375 0.475338 3.59375
0.34375 0.455486 3.65625
0.34375 0.450056 3.71875
0.34375 0.449269 3.78125
0.34375 0.44992 3.84375
0.34375 0.449746 3.90625
0.34375 0.448897 3.96875
0.34375 0.458992 4.15625
0.34375 0.447991 4.21875
0.34375 0.447967 4.28125
0.34375 0.447952 4.34375
0.34375 0.447939 4.40625
0.34375 0.447926 4.46875
0.34375 0.462319 4.71875
0.34375 0.464946 4.78125
0.34375 0.465208 4.84375
0.34375 0.465243 4.90625
0.34375 0.469829 4.96875
0.34375 0.47439 5.03125
0.34375 0.468919 5.09375
0.34375 0.482072 5.15625
0.34375 0.463861 5.21875
0.34375 0.484569 5.28125
0.34375 0.515911 5.40625
0.34375 0.497663 5.46875
0.34375 0.497641 5.59375
0.34375 0.497618 5.65625
0.34375 0.497594 5.78125
0.34375 0.49757 5.84375
0.34375 0.497545 5.96875
0.34375 0.497519 6.03125
0.34375 0.497492 6.15625
0.34375 0.497464 6.21875
0.34375 0.497435 6.34375
0.34375 0.497406 6.46875
0.34375 0.497375 6.59375
0.34375 0.497343 6.71875
0.34375 0.49731 6.84375
0.34375 0.497275 6.96875
0.34375 0.49724 7.09375
0.34375 0.497203 7.21875
0.34375 0.497164 7.40625
0.34375 0.497124 7.53125
0.34375 0.497082 7.71875
0.34375 0.497038 7.84375
0.375 0.450587 3.875
0.40625 0.454595 0.84375
0.40625 0.449769 0.90625
0.40625 0.448844 0.96875
0.40625 0.448821 1.03125
0.40625 0.448809 1.09375
0.40625 0.448791 1.15625
0.40625 0.448775 1.21875
0.40625 0.44878 1.28125
0.40625 0.449833 1.34375
0.40625 0.48861 1.53125
0.40625 0.494027 1.59375
0.40625 0.504812 1.65625
0.40625 0.51594 1.71875
0.40625 0.525258 1.78125
0.40625 0.536341 1.84375
0.40625 0.542779 1.96875
0.40625 0.449108 2.03125
0.40625 0.448548 2.09375
0.40625 0.448531 2.15625
0.40625 0.448513 2.21875
0.40625 0.448496 2.28125
0.40625 0.448704 2.34375
0.40625 0.465226 2.53125
0.40625 0.448544 2.59375
0.40625 0.448403 2.65625
0.40625 0.448385 2.71875
0.40625 0.448365 2.78125
0.40625 0.448348 2.84375
0.40625 0.448337 2.90625
0.40625 0.505549 3.59375
0.40625 0.453857 3.65625
0.40625 0.448117 3.71875
0.40625 0.448102 3.78125
0.40625 0.448085 3.84375
0.40625 0.448074 3.90625
0.40625 0.448062 3.96875
0.40625 0.457498 4.15625
0.40625 0.447987 4.21875
0.40625 0.447963 4.28125
0.40625 0.447949 4.34375
0.40625 0.447936 4.40625
0.40625 0.447922 4.46875
0.40625 0.462423 4.65625
0.40625 0.454796 4.71875
0.40625 0.449336 4.78125
0.40625 0.449748 4.84375
0.40625 0.448956 4.90625
0.40625 0.448052 4.96875
0.40625 0.448801 5.03125
0.40625 0.449005 5.09375
0.40625 0.449304 5.15625
0.40625 0.448799 5.21875
0.40625 0.448826 5.28125
0.40625 0.497592 5.78125
0.40625 0.497567 5.84375
0.40625 0.497541 5.96875
0.40625 0.497515 6.03125
0.40625 0.497488 6.15625
0.40625 0.49746 6.21875
0.40625 0.497432 6.34375
0.40625 0.497402 6.46875
0.40625 0.497371 6.59375
0.40625 0.497339 6.71875
0.40625 0.497306 6.84375
0.40625 0.497272 6.96875
0.40625 0.497236 7.09375
0.40625 0.497199 7.21875
0.40625 0.49716 7.40625
0.40625 0.49712 7.53125
0.40625 0.497078 7.71875
0.40625 0.497035 7.84375
0.4375 0.448856 1.6875
0.4375 0.448726 4.6875
0.4375 0.451271 4.9375
0.4375 0.451897 5.1875
0.4375 0.453249 5.3125
0.46875 0.454574 0.84375
0.46875 0.449765 0.90625
0.46875 0.448843 0.96875
0.46875 0.44882 1.03125
0.46875 0.448807 1.09375
0.46875 0.448788 1.15625
0.46875 0.448773 1.21875
0.46875 0.448778 1.28125
0.46875 0.449836 1.34375
0.46875 0.487806 1.46875
0.46875 0.460483 1.53125
0.46875 0.450656 1.59375
0.46875 0.450661 1.65625
0.46875 0.450619 1.71875
0.46875 0.450633 1.78125
0.46875 0.450732 1.84375
0.46875 0.52608 1.96875
0.46875 0.449103 2.03125
0.46875 0.448544 2.09375
0.46875 0.448527 2.15625
0.46875 0.448509 2.21875
0.46875 0.448492 2.28125
0.46875 0.448706 2.34375
0.46875 0.465221 2.53125
0.46875 0.448536 2.59375
0.46875 0.4484 2.65625
0.46875 0.448382 2.71875
0.46875 0.448362 2.78125
0.46875 0.448345 2.84375
0.46875 0.448334 2.90625
0.46875 0.512525 3.59375
0.46875 0.453508 3.65625
0.46875 0.448115 3.71875
0.46875 0.448098 3.78125
0.46875 0.448082 3.84375
0.46875 0.448071 3.90625
0.46875 0.448059 3.96875
0.46875 0.457453 4.15625
0.46875 0.447983 4.21875
0.46875 0.447959 4.28125
0.46875 0.447946 4.34375
0.46875 0.447933 4.40625
0.46875 0.44792 4.46875
0.46875 0.462419 4.65625
0.46875 0.452175 4.71875
0.46875 0.447837 4.78125
0.46875 0.447819 4.90625
0.46875 0.447801 4.96875
0.46875 0.447782 5.03125
0.46875 0.447763 5.09375
0.46875 0.447743 5.15625
0.46875 0.447722 5.28125
0.46875 0.497538 5.96875
0.46875 0.497512 6.03125
0.46875 0.497485 6.15625
0.46875 0.497458 6.21875
0.46875 0.497429 6.34375
0.46875 0.497399 6.46875
0.46875 0.497368 6.59375
0.46875 0.497336 6.71875
0.46875 0.497303 6.84375
0.46875 0.497269 6.96875
0.46875 0.497233 7.09375
0.46875 0.497196 7.21875
0.46875 0.497157 7.40625
0.46875 0.497117 7.53125
0.46875 0.497075 7.71875
0.46875 0.497031 7.84375
0.53125 0.454562 0.84375
0.53125 0.449756 0.90625
0.53125 0.448838 0.96875
0.53125 0.448819 1.03125
0.53125 0.448805 1.09375
0.53125 0.448787 1.15625
0.53125 0.448771 1.21875
0.53125 0.448777 1.28125
0.53125 0.449839 1.34375
0.53125 0.486437 1.46875
0.53125 0.454105 1.53125
0.53125 0.448673 1.59375
0.53125 0.448655 1.65625
0.53125 0.448638 1.71875
0.53125 0.448621 1.78125
0.53125 0.448606 1.84375
0.53125 0.463807 1.96875
0.53125 0.449081 2.03125
0.53125 0.44854 2.09375
0.53125 0.448523 2.15625
0.53125 0.448505 2.21875
0.53125 0.448488 2.28125
0.53125 0.448703 2.34375
0.53125 0.465251 2.53125
0.53125 0.448539 2.59375
0.53125 0.448397 2.65625
0.53125 0.448378 2.71875
0.53125 0.448359 2.78125
0.53125 0.448342 2.84375
0.53125 0.448331 2.90625
0.53125 0.465485 3.09375
0.53125 0.462929 3.15625
0.53125 0.466555 3.21875
0.53125 0.468657 3.28125
0.53125 0.473318 3.34375
0.53125 0.4814 3.40625
0.53125 0.46653 3.46875
0.53125 0.509468 3.59375
0.53125 0.45385 3.65625
0.53125 0.448111 3.71875
0.53125 0.448096 3.78125
0.53125 0.448079 3.84375
0.53125 0.448068 3.90625
0.53125 0.448057 3.96875
0.53125 0.457401 4.15625
0.53125 0.44798 4.21875
0.53125 0.447956 4.28125
0.53125 0.447943 4.34375
0.53125 0.44793 4.40625
0.53125 0.447917 4.46875
0.53125 0.462414 4.65625
0.53125 0.452646 4.71875
0.53125 0.447832 4.78125
0.53125 0.447814 4.90625
0.53125 0.447795 4.96875
0.53125 0.447777 5.03125
0.53125 0.447757 5.09375
0.53125 0.447737 5.15625
0.53125 0.447717 5.28125
0.5625 0.448828 0.9375
0.5625 0.448764 1.1875
0.5625 0.466324 1.4375
0.5625 0.448632 1.6875
0.5625 0.452677 1.9375
0.5625 0.448499 2.1875
0.5625 0.449185 2.3125
0.5625 0.448374 2.6875
0.5625 0.448332 2.9375
0.5625 0.448496 3.1875
0.5625 0.448197 3.4375
0.5625 0.448113 3.6875
0.5625 0.448058 3.9375
0.5625 0.447972 4.1875
0.5625 0.447918 4.4375
0.5625 0.447885 4.6875
0.5625 0.447798 4.9375
0.5625 0.44774 5.1875
0.5625 0.44772 5.3125
0.59375 0.454543 0.84375
0.59375 0.449636 0.90625
0.59375 0.448829 0.96875
0.59375 0.448815 1.03125
0.59375 0.448797 1.09375
0.59375 0.448784 1.15625
0.59375 0.448769 1.21875
0.59375 0.448775 1.28125
0.59375 0.449843 1.34375
0.59375 0.48654 1.46875
0.59375 0.454116 1.53125
0.59375 0.448669 1.59375
0.59375 0.448652 1.65625
0.59375 0.448634 1.71875
0.59375 0.448618 1.78125
0.59375 0.448602 1.84375
0.59375 0.463698 1.96875
0.59375 0.449093 2.03125
0.59375 0.448536 2.09375
0.59375 0.448519 2.15625
0.59375 0.448501 2.21875
0.59375 0.448484 2.28125
0.59375 0.448709 2.34375
0.59375 0.465231 2.53125
0.59375 0.448538 2.59375
0.59375 0.448394 2.65625
0.59375 0.448375 2.71875
0.59375 0.448355 2.78125
0.59375 0.448339 2.84375
0.59375 0.448328 2.90625
0.59375 0.461461 3.09375
0.59375 0.448257 3.15625
0.59375 0.448239 3.21875
0.59375 0.448221 3.28125
0.59375 0.448207 3.34375
0.59375 0.448193 3.40625
0.59375 0.448178 3.46875
0.59375 0.467514 3.59375
0.59375 0.453655 3.65625
0.59375 0.448109 3.71875
0.59375 0.448093 3.78125
0.59375 0.448076 3.84375
0.59375 0.448065 3.90625
0.59375 0.448054 3.96875
0.59375 0.457467 4.15625
0.59375 0.447974 4.21875
0.59375 0.447953 4.28125
0.59375 0.447941 4.34375
0.59375 0.447928 4.40625
0.59375 0.447914 4.46875
0.59375 0.462409 4.65625
0.59375 0.452165 4.71875
0.59375 0.447826 4.78125
0.59375 0.447809 4.90625
0.59375 0.447791 4.96875
0.59375 0.447772 5.03125
0.59375 0.447752 5.09375
0.59375 0.447733 5.15625
0.59375 0.447713 5.28125
0.65625 0.448841 0.90625
0.65625 0.448823 0.96875
0.65625 0.448812 1.03125
0.65625 0.448792 1.09375
0.65625 0.44878 1.15625
0.65625 0.448764 1.21875
0.65625 0.44877 1.28125
0.65625 0.449846 1.34375
0.65625 0.486542 1.46875
0.65625 0.454078 1.53125
0.65625 0.448666 1.59375
0.65625 0.448648 1.65625
0.65625 0.448631 1.71875
0.65625 0.448614 1.78125
0.65625 0.448598 1.84375
0.65625 0.463705 1.96875
0.65625 0.449083 2.03125
0.65625 0.448532 2.09375
0.65625 0.448515 2.15625
0.65625 0.448497 2.21875
0.65625 0.44848 2.28125
0.65625 0.448715 2.34375
0.65625 0.465404 2.53125
0.65625 0.44863 2.59375
0.65625 0.448494 2.65625
0.65625 0.448459 2.71875
0.65625 0.448451 2.78125
0.65625 0.448435 2.84375
0.65625 0.44842 2.90625
0.65625 0.46154 3.09375
0.65625 0.448252 3.15625
0.65625 0.448235 3.21875
0.65625 0.448217 3.28125
0.65625 0.448203 3.34375
0.65625 0.448189 3.40625
0.65625 0.448174 3.46875
0.65625 0.465963 3.59375
0.65625 0.453664 3.65625
0.65625 0.448105 3.71875
0.65625 0.44809 3.78125
0.65625 0.448073 3.84375
0.65625 0.448063 3.90625
0.65625 0.448051 3.96875
0.65625 0.457474 4.15625
0.65625 0.447971 4.21875
0.65625 0.447951 4.28125
0.65625 0.447938 4.34375
0.65625 0.447925 4.40625
0.65625 0.447911 4.46875
0.65625 0.462404 4.65625
0.65625 0.452328 4.71875
0.65625 0.447821 4.78125
0.65625 0.447804 4.90625
0.65625 0.447785 4.96875
0.65625 0.447767 5.03125
0.65625 0.447747 5.09375
0.65625 0.447728 5.15625
0.65625 0.447708 5.28125
0.71875 0.448819 0.96875
0.71875 0.448807 1.03125
0.71875 0.44879 1.09375
0.71875 0.448776 1.15625
0.71875 0.448759 1.21875
0.71875 0.448767 1.28125
0.71875 0.449849 1.34375
0.71875 0.486498 1.46875
0.71875 0.454077 1.53125
0.71875 0.448662 1.59375
0.71875 0.448645 1.65625
0.71875 0.448626 1.71875
0.71875 0.44861 1.78125
0.71875 0.448594 1.84375
0.71875 0.463649 1.96875
0.71875 0.449086 2.03125
0.71875 0.448528 2.09375
0.71875 0.448511 2.15625
0.71875 0.448493 2.21875
0.71875 0.448476 2.28125
0.71875 0.448721 2.34375
0.71875 0.469038 2.53125
0.71875 0.454165 2.59375
0.71875 0.453092 2.65625
0.71875 0.452599 2.71875
0.71875 0.453048 2.78125
0.71875 0.452873 2.84375
0.71875 0.452204 2.90625
0.71875 0.461503 3.09375
0.71875 0.448248 3.15625
0.71875 0.44823 3.21875
0.71875 0.448213 3.28125
0.71875 0.448199 3.34375
0.71875 0.448185 3.40625
0.71875 0.448171 3.46875
0.71875 0.465972 3.59375
