VERSION
FIELDS x y z
SIZE 4 4 4
TYPE F F F
COUNT 1 1 1
WIDTH 1854
HEIGHT 1
VIEWPOINT 0 0 0 1 0 0 0
POINTS 1854
DATA ascii
0.203125 0.448656 1.70312
0.203125 0.448648 1.73438
0.203125 0.44864 1.76562
0.203125 0.448632 1.79688
0.203125 0.469684 1.98438
0.203125 0.449371 2.01562
0.203125 0.448573 2.04688
0.203125 0.448564 2.07812
0.203125 0.448555 2.10938
0.203125 0.448547 2.14062
0.203125 0.44854 2.17188
0.203125 0.448532 2.20312
0.203125 0.448522 2.23438
0.203125 0.448512 2.26562
0.203125 0.448505 2.29688
0.203125 0.448499 2.32812
0.203125 0.449134 2.35938
0.203125 0.465335 2.54688
0.203125 0.448596 2.57812
0.203125 0.448424 2.60938
0.203125 0.448416 2.64062
0.203125 0.448406 2.67188
0.203125 0.448398 2.70312
0.203125 0.448388 2.73438
0.203125 0.448378 2.76562
0.203125 0.448368 2.79688
0.203125 0.448361 2.82812
0.203125 0.448354 2.85938
0.203125 0.448347 2.89062
0.203125 0.473146 3.07812
0.203125 0.456456 3.10938
0.203125 0.448274 3.14062
0.203125 0.448266 3.17188
0.203125 0.448258 3.20312
0.203125 0.448251 3.23438
0.203125 0.448243 3.26562
0.203125 0.448236 3.29688
0.203125 0.448228 3.35938
0.203125 0.44822 3.39062
0.203125 0.448211 3.42188
0.203125 0.448203 3.45312
0.203125 0.492812 4.14062
0.203125 0.450108 4.17188
0.203125 0.448008 4.20312
0.203125 0.447993 4.23438
0.203125 0.447976 4.29688
0.203125 0.447959 4.35938
0.203125 0.447945 4.42188
0.203125 0.447932 4.48438
0.203125 0.514275 5.42188
0.203125 0.49767 5.48438
0.203125 0.497648 5.57812
0.203125 0.497625 5.67188
0.203125 0.497602 5.76562
0.203125 0.497577 5.85938
0.203125 0.497552 5.95312
0.203125 0.497526 6.04688
0.203125 0.497499 6.14062
0.203125 0.497471 6.23438
0.203125 0.497442 6.35938
0.203125 0.497413 6.48438
0.203125 0.497382 6.57812
0.203125 0.49735 6.70312
0.203125 0.497317 6.82812
0.203125 0.497283 6.95312
0.203125 0.497247 7.10938
0.203125 0.49721 7.23438
0.203125 0.497171 7.39062
0.203125 0.497131 7.54688
0.203125 0.497089 7.70312
0.203125 0.497045 7.85938
0.21875 0.497671 5.46875
0.21875 0.497649 5.59375
0.21875 0.497626 5.65625
0.234375 0.454645 0.859375
0.234375 0.450418 0.890625
0.234375 0.448863 0.921875
0.234375 0.448855 0.953125
0.234375 0.448847 0.984375
0.234375 0.448837 1.01562
0.234375 0.448829 1.04688
0.234375 0.448821 1.07812
0.234375 0.448813 1.10938
0.234375 0.448805 1.14062
0.234375 0.448797 1.17188
0.234375 0.448789 1.20312
0.234375 0.448781 1.23438
0.234375 0.448772 1.26562
0.234375 0.448808 1.29688
0.234375 0.449824 1.32812
0.234375 0.470699 1.45312
0.234375 0.449717 1.48438
0.234375 0.448983 1.51562
0.234375 0.449048 1.54688
0.234375 0.449009 1.57812
0.234375 0.448998 1.60938
0.234375 0.448973 1.64062
0.234375 0.44894 1.67188
0.234375 0.449023 1.70312
0.234375 0.448899 1.73438
0.234375 0.448976 1.76562
0.234375 0.448953 1.79688
0.234375 0.470171 1.98438
0.234375 0.449403 2.01562
0.234375 0.448571 2.04688
0.234375 0.448562 2.07812
0.234375 0.448553 2.10938
0.234375 0.448545 2.14062
0.234375 0.448538 2.17188
0.234375 0.44853 2.20312
0.234375 0.44852 2.23438
0.234375 0.44851 2.26562
0.234375 0.448503 2.29688
0.234375 0.448496 2.32812
0.234375 0.449138 2.35938
0.234375 0.465193 2.54688
0.234375 0.448597 2.57812
0.234375 0.448423 2.60938
0.234375 0.448414 2.64062
0.234375 0.448405 2.67188
0.234375 0.448396 2.70312
0.234375 0.448386 2.73438
0.234375 0.448377 2.76562
0.234375 0.448367 2.79688
0.234375 0.448359 2.82812
0.234375 0.448353 2.85938
0.234375 0.448345 2.89062
0.234375 0.473151 3.07812
0.234375 0.456121 3.10938
0.234375 0.448271 3.14062
0.234375 0.448264 3.17188
0.234375 0.448257 3.20312
0.234375 0.448249 3.23438
0.234375 0.448242 3.26562
0.234375 0.448234 3.29688
0.234375 0.448226 3.35938
0.234375 0.448218 3.39062
0.234375 0.44821 3.42188
0.234375 0.448201 3.45312
0.234375 0.492817 4.14062
0.234375 0.450111 4.17188
0.234375 0.448006 4.20312
0.234375 0.447991 4.23438
0.234375 0.447974 4.29688
0.234375 0.447958 4.35938
0.234375 0.447944 4.42188
0.234375 0.44793 4.48438
0.234375 0.515913 5.42188
0.234375 0.497669 5.48438
0.234375 0.497646 5.57812
0.234375 0.497624 5.67188
0.234375 0.4976 5.76562
0.234375 0.497576 5.85938
0.234375 0.49755 5.95312
0.234375 0.497525 6.04688
0.234375 0.497497 6.14062
0.234375 0.49747 6.23438
0.234375 0.497441 6.35938
0.234375 0.497411 6.48438
0.234375 0.49738 6.57812
0.234375 0.497349 6.70312
0.234375 0.497315 6.82812
0.234375 0.497281 6.95312
0.234375 0.497245 7.10938
0.234375 0.497208 7.23438
0.234375 0.49717 7.39062
0.234375 0.49713 7.54688
0.234375 0.497088 7.70312
0.234375 0.497044 7.85938
0.265625 0.454645 0.859375
0.265625 0.450425 0.890625
0.265625 0.448861 0.921875
0.265625 0.448852 0.953125
0.265625 0.448844 0.984375
0.265625 0.448836 1.01562
0.265625 0.448828 1.04688
0.265625 0.448819 1.07812
0.265625 0.448811 1.10938
0.265625 0.448803 1.14062
0.265625 0.448795 1.17188
0.265625 0.448788 1.20312
0.265625 0.44878 1.23438
0.265625 0.448771 1.26562
0.265625 0.448806 1.29688
0.265625 0.449826 1.32812
0.265625 0.473387 1.45312
0.265625 0.453657 1.48438
0.265625 0.452611 1.51562
0.265625 0.452646 1.54688
0.265625 0.452515 1.57812
0.265625 0.452754 1.60938
0.265625 0.452553 1.64062
0.265625 0.452561 1.67188
0.265625 0.452562 1.70312
0.265625 0.45267 1.73438
0.265625 0.452603 1.76562
0.265625 0.452484 1.79688
0.265625 0.453183 1.82812
0.265625 0.469833 1.98438
0.265625 0.449366 2.01562
0.265625 0.448569 2.04688
0.265625 0.44856 2.07812
0.265625 0.448551 2.10938
0.265625 0.448544 2.14062
0.265625 0.448536 2.17188
0.265625 0.448528 2.20312
0.265625 0.448518 2.23438
0.265625 0.448508 2.26562
0.265625 0.448501 2.29688
0.265625 0.448494 2.32812
0.265625 0.449144 2.35938
0.265625 0.465714 2.54688
0.265625 0.448597 2.57812
0.265625 0.448421 2.60938
0.265625 0.448412 2.64062
0.265625 0.448404 2.67188
0.265625 0.448395 2.70312
0.265625 0.448385 2.73438
0.265625 0.448375 2.76562
0.265625 0.448365 2.79688
0.265625 0.448358 2.82812
0.265625 0.448351 2.85938
0.265625 0.448344 2.89062
0.265625 0.473157 3.07812
0.265625 0.456973 3.10938
0.265625 0.448269 3.14062
0.265625 0.448262 3.17188
0.265625 0.448255 3.20312
0.265625 0.448247 3.23438
0.265625 0.44824 3.26562
0.265625 0.448232 3.29688
0.265625 0.448224 3.35938
0.265625 0.448216 3.39062
0.265625 0.448207 3.42188
0.265625 0.448199 3.45312
0.265625 0.492821 4.14062
0.265625 0.450114 4.17188
0.265625 0.448004 4.20312
0.265625 0.447988 4.23438
0.265625 0.447972 4.29688
0.265625 0.447956 4.35938
0.265625 0.447942 4.42188
0.265625 0.447929 4.48438
0.265625 0.516705 5.42188
0.265625 0.497667 5.48438
0.265625 0.497644 5.57812
0.265625 0.497622 5.67188
0.265625 0.497598 5.76562
0.265625 0.497574 5.85938
0.265625 0.497549 5.95312
0.265625 0.497523 6.04688
0.265625 0.497496 6.14062
0.265625 0.497468 6.23438
0.265625 0.497439 6.35938
0.265625 0.497409 6.48438
0.265625 0.497378 6.57812
0.265625 0.497347 6.70312
0.265625 0.497313 6.82812
0.265625 0.497279 6.95312
0.265625 0.497243 7.10938
0.265625 0.497206 7.23438
0.265625 0.497167 7.39062
0.265625 0.497128 7.54688
0.265625 0.497085 7.70312
0.265625 0.497042 7.85938
0.28125 0.453989 0.84375
0.28125 0.448842 0.96875
0.28125 0.448808 1.09375
0.28125 0.448777 1.21875
0.28125 0.449825 1.34375
0.28125 0.449936 1.46875
0.28125 0.449805 1.59375
0.28125 0.449739 1.71875
0.28125 0.449702 1.78125
0.28125 0.452713 1.96875
0.28125 0.44855 2.09375
0.28125 0.448515 2.21875
0.28125 0.449141 2.34375
0.28125 0.448422 2.59375
0.28125 0.448386 2.71875
0.28125 0.448352 2.84375
0.28125 0.448345 2.90625
0.28125 0.448368 3.09375
0.28125 0.448248 3.21875
0.28125 0.448225 3.34375
0.28125 0.4482 3.46875
0.28125 0.447989 4.21875
0.28125 0.447957 4.34375
0.28125 0.44793 4.46875
0.28125 0.497668 5.46875
0.28125 0.497645 5.59375
0.28125 0.497623 5.65625
0.28125 0.497575 5.84375
0.28125 0.497549 5.96875
0.28125 0.497524 6.03125
0.28125 0.497469 6.21875
0.28125 0.49744 6.34375
0.28125 0.497411 6.46875
0.28125 0.497379 6.59375
0.28125 0.497348 6.71875
0.28125 0.497314 6.84375
0.28125 0.49728 6.96875
0.28125 0.497244 7.09375
0.28125 0.497207 7.21875
0.28125 0.497169 7.40625
0.28125 0.497129 7.53125
0.28125 0.497086 7.71875
0.28125 0.497043 7.84375
0.296875 0.454612 0.859375
0.296875 0.450408 0.890625
0.296875 0.448859 0.921875
0.296875 0.448851 0.953125
0.296875 0.448843 0.984375
0.296875 0.448835 1.01562
0.296875 0.448827 1.04688
0.296875 0.448818 1.07812
0.296875 0.44881 1.10938
0.296875 0.448802 1.14062
0.296875 0.448793 1.17188
0.296875 0.448786 1.20312
0.296875 0.448778 1.23438
0.296875 0.448769 1.26562
0.296875 0.448805 1.29688
0.296875 0.449827 1.32812
0.296875 0.480933 1.45312
0.296875 0.471359 1.48438
0.296875 0.462034 1.51562
0.296875 0.462419 1.54688
0.296875 0.46287 1.57812
0.296875 0.462005 1.60938
0.296875 0.462342 1.64062
0.296875 0.462719 1.67188
0.296875 0.46205 1.70312
0.296875 0.46268 1.73438
0.296875 0.462529 1.76562
0.296875 0.461667 1.79688
0.296875 0.472752 1.98438
0.296875 0.449415 2.01562
0.296875 0.448567 2.04688
0.296875 0.448558 2.07812
0.296875 0.448549 2.10938
0.296875 0.448542 2.14062
0.296875 0.448534 2.17188
0.296875 0.448526 2.20312
0.296875 0.448516 2.23438
0.296875 0.448506 2.26562
0.296875 0.448499 2.29688
0.296875 0.448492 2.32812
0.296875 0.449148 2.35938
0.296875 0.465265 2.54688
0.296875 0.448587 2.57812
0.296875 0.44842 2.60938
0.296875 0.448411 2.64062
0.296875 0.448402 2.67188
0.296875 0.448393 2.70312
0.296875 0.448384 2.73438
0.296875 0.448374 2.76562
0.296875 0.448363 2.79688
0.296875 0.448356 2.82812
0.296875 0.44835 2.85938
0.296875 0.448342 2.89062
0.296875 0.473232 3.07812
0.296875 0.456872 3.10938
0.296875 0.448742 3.14062
0.296875 0.448892 3.17188
0.296875 0.448788 3.20312
0.296875 0.448727 3.23438
0.296875 0.448621 3.26562
0.296875 0.448784 3.29688
0.296875 0.449239 3.32812
0.296875 0.448646 3.35938
0.296875 0.448806 3.39062
0.296875 0.448771 3.42188
0.296875 0.448335 3.45312
0.296875 0.464393 3.64062
0.296875 0.463919 3.67188
0.296875 0.464081 3.70312
0.296875 0.471709 3.73438
0.296875 0.465926 3.76562
0.296875 0.471451 3.79688
0.296875 0.465353 3.82812
0.296875 0.478665 3.85938
0.296875 0.466325 3.89062
0.296875 0.463374 3.92188
0.296875 0.479221 3.95312
0.296875 0.467564 3.98438
0.296875 0.487558 4.14062
0.296875 0.450117 4.17188
0.296875 0.448002 4.20312
0.296875 0.447986 4.23438
0.296875 0.44797 4.29688
0.296875 0.447954 4.35938
0.296875 0.447941 4.42188
0.296875 0.447928 4.48438
0.296875 0.515912 5.42188
0.296875 0.497665 5.48438
0.296875 0.497643 5.57812
0.296875 0.49762 5.67188
0.296875 0.497597 5.76562
0.296875 0.497572 5.85938
0.296875 0.497547 5.95312
0.296875 0.497521 6.04688
0.296875 0.497494 6.14062
0.296875 0.497467 6.23438
0.296875 0.497438 6.35938
0.296875 0.497408 6.48438
0.296875 0.497378 6.57812
0.296875 0.497345 6.70312
0.296875 0.497312 6.82812
0.296875 0.497278 6.95312
0.296875 0.497242 7.10938
0.296875 0.497205 7.23438
0.296875 0.497166 7.39062
0.296875 0.497126 7.54688
0.296875 0.497084 7.70312
0.296875 0.497041 7.85938
0.3125 0.451679 3.9375
0.328125 0.454628 0.859375
0.328125 0.450407 0.890625
0.328125 0.448858 0.921875
0.328125 0.44885 0.953125
0.328125 0.448842 0.984375
0.328125 0.448834 1.01562
0.328125 0.448825 1.04688
0.328125 0.448817 1.07812
0.328125 0.448809 1.10938
0.328125 0.4488 1.14062
0.328125 0.448792 1.17188
0.328125 0.448785 1.20312
0.328125 0.448776 1.23438
0.328125 0.448768 1.26562
0.328125 0.448805 1.29688
0.328125 0.449829 1.32812
0.328125 0.481786 1.98438
0.328125 0.449361 2.01562
0.328125 0.448565 2.04688
0.328125 0.448556 2.07812
0.328125 0.448547 2.10938
0.328125 0.448539 2.14062
0.328125 0.448532 2.17188
0.328125 0.448524 2.20312
0.328125 0.448514 2.23438
0.328125 0.448504 2.26562
0.328125 0.448497 2.29688
0.328125 0.448491 2.32812
0.328125 0.449153 2.35938
0.328125 0.465386 2.54688
0.328125 0.448598 2.57812
0.328125 0.448418 2.60938
0.328125 0.44841 2.64062
0.328125 0.448401 2.67188
0.328125 0.448392 2.70312
0.328125 0.448382 2.73438
0.328125 0.448372 2.76562
0.328125 0.448362 2.79688
0.328125 0.448355 2.82812
0.328125 0.448348 2.85938
0.328125 0.448341 2.89062
0.328125 0.476254 3.07812
0.328125 0.466572 3.10938
0.328125 0.454414 3.14062
0.328125 0.456657 3.17188
0.328125 0.456299 3.20312
0.328125 0.455757 3.23438
0.328125 0.453311 3.26562
0.328125 0.457499 3.29688
0.328125 0.454627 3.32812
0.328125 0.454897 3.35938
0.328125 0.454233 3.39062
0.328125 0.45723 3.42188
0.328125 0.461546 3.45312
0.328125 0.470768 3.60938
0.328125 0.458622 3.64062
0.328125 0.450989 3.67188
0.328125 0.451388 3.70312
0.328125 0.451026 3.73438
0.328125 0.450675 3.76562
0.328125 0.451613 3.79688
0.328125 0.451183 3.82812
0.328125 0.451276 3.85938
0.328125 0.450848 3.89062
0.328125 0.450321 3.92188
0.328125 0.451328 3.95312
0.328125 0.462394 4.14062
0.328125 0.45012 4.17188
0.328125 0.448 4.20312
0.328125 0.447984 4.23438
0.328125 0.447968 4.29688
0.328125 0.447953 4.35938
0.328125 0.44794 4.42188
0.328125 0.447926 4.48438
0.328125 0.51654 5.42188
0.328125 0.497663 5.48438
0.328125 0.497641 5.57812
0.328125 0.497618 5.67188
0.328125 0.497595 5.76562
0.328125 0.497571 5.85938
0.328125 0.497545 5.95312
0.328125 0.497519 6.04688
0.328125 0.497493 6.14062
0.328125 0.497465 6.23438
0.328125 0.497436 6.35938
0.328125 0.497406 6.48438
0.328125 0.497375 6.57812
0.328125 0.497343 6.70312
0.328125 0.49731 6.82812
0.328125 0.497276 6.95312
0.328125 0.49724 7.10938
0.328125 0.497203 7.23438
0.328125 0.497164 7.39062
0.328125 0.497124 7.54688
0.328125 0.497083 7.70312
0.328125 0.497038 7.85938
0.34375 0.466082 3.59375
0.34375 0.451338 3.71875
0.34375 0.45005 3.84375
0.34375 0.451133 3.96875
0.34375 0.455441 4.71875
0.34375 0.454104 4.84375
0.34375 0.45924 4.96875
0.34375 0.455303 5.09375
0.34375 0.458038 5.21875
0.34375 0.458742 5.28125
0.359375 0.454604 0.859375
0.359375 0.450405 0.890625
0.359375 0.448856 0.921875
0.359375 0.448848 0.953125
0.359375 0.448839 0.984375
0.359375 0.448831 1.01562
0.359375 0.448823 1.04688
0.359375 0.448814 1.07812
0.359375 0.448806 1.10938
0.359375 0.448798 1.14062
0.359375 0.44879 1.17188
0.359375 0.448783 1.20312
0.359375 0.448774 1.23438
0.359375 0.448766 1.26562
0.359375 0.448802 1.29688
0.359375 0.44983 1.32812
0.359375 0.501548 1.98438
0.359375 0.449391 2.01562
0.359375 0.448563 2.04688
0.359375 0.448554 2.07812
0.359375 0.448545 2.10938
0.359375 0.448538 2.14062
0.359375 0.44853 2.17188
0.359375 0.448522 2.20312
0.359375 0.448512 2.23438
0.359375 0.448502 2.26562
0.359375 0.448495 2.29688
0.359375 0.448489 2.32812
0.359375 0.449158 2.35938
0.359375 0.465213 2.54688
0.359375 0.448598 2.57812
0.359375 0.448417 2.60938
0.359375 0.448408 2.64062
0.359375 0.448399 2.67188
0.359375 0.44839 2.70312
0.359375 0.44838 2.73438
0.359375 0.44837 2.76562
0.359375 0.448361 2.79688
0.359375 0.448354 2.82812
0.359375 0.448346 2.85938
0.359375 0.448339 2.89062
0.359375 0.475265 3.10938
0.359375 0.465646 3.14062
0.359375 0.465588 3.26562
0.359375 0.465526 3.39062
0.359375 0.476714 3.60938
0.359375 0.454751 3.64062
0.359375 0.448134 3.67188
0.359375 0.448137 3.73438
0.359375 0.44814 3.76562
0.359375 0.448142 3.79688
0.359375 0.448087 3.85938
0.359375 0.448085 3.89062
0.359375 0.448087 3.95312
0.359375 0.4602 4.14062
0.359375 0.450122 4.17188
0.359375 0.447998 4.20312
0.359375 0.447982 4.23438
0.359375 0.447966 4.29688
0.359375 0.447951 4.35938
0.359375 0.447938 4.42188
0.359375 0.447925 4.48438
0.359375 0.461982 4.70312
0.359375 0.466142 4.73438
0.359375 0.463191 4.76562
0.359375 0.469879 4.79688
0.359375 0.461925 4.82812
0.359375 0.473863 4.85938
0.359375 0.465921 4.89062
0.359375 0.467904 4.92188
0.359375 0.471295 4.95312
0.359375 0.471773 4.98438
0.359375 0.454891 5.01562
0.359375 0.481746 5.04688
0.359375 0.469923 5.07812
0.359375 0.470613 5.10938
0.359375 0.457559 5.14062
0.359375 0.488634 5.17188
0.359375 0.467927 5.20312
0.359375 0.492789 5.26562
0.359375 0.472113 5.29688
0.359375 0.515911 5.42188
0.359375 0.497662 5.48438
0.359375 0.49764 5.57812
0.359375 0.497617 5.67188
0.359375 0.497593 5.76562
0.359375 0.497569 5.85938
0.359375 0.497544 5.95312
0.359375 0.497517 6.04688
0.359375 0.497491 6.14062
0.359375 0.497463 6.23438
0.359375 0.497434 6.35938
0.359375 0.497404 6.48438
0.359375 0.497374 6.57812
0.359375 0.497342 6.70312
0.359375 0.497309 6.82812
0.359375 0.497275 6.95312
0.359375 0.497239 7.10938
0.359375 0.497202 7.23438
0.359375 0.497163 7.39062
0.359375 0.497123 7.54688
0.359375 0.497081 7.70312
0.359375 0.497037 7.85938
0.375 0.451679 3.875
0.390625 0.454612 0.859375
0.390625 0.450392 0.890625
0.390625 0.448854 0.921875
0.390625 0.448846 0.953125
0.390625 0.448837 0.984375
0.390625 0.448829 1.01562
0.390625 0.448821 1.04688
0.390625 0.448813 1.07812
0.390625 0.448805 1.10938
0.390625 0.448797 1.14062
0.390625 0.448789 1.17188
0.390625 0.448781 1.20312
0.390625 0.448773 1.23438
0.390625 0.448765 1.26562
0.390625 0.448803 1.29688
0.390625 0.449832 1.32812
0.390625 0.526559 1.98438
0.390625 0.449373 2.01562
0.390625 0.448561 2.04688
0.390625 0.448552 2.07812
0.390625 0.448543 2.10938
0.390625 0.448536 2.14062
0.390625 0.448528 2.17188
0.390625 0.44852 2.20312
0.390625 0.44851 2.23438
0.390625 0.4485 2.26562
0.390625 0.448493 2.29688
0.390625 0.448487 2.32812
0.390625 0.449162 2.35938
0.390625 0.465372 2.54688
0.390625 0.448598 2.57812
0.390625 0.448415 2.60938
0.390625 0.448407 2.64062
0.390625 0.448398 2.67188
0.390625 0.448389 2.70312
0.390625 0.448379 2.73438
0.390625 0.448369 2.76562
0.390625 0.448359 2.79688
0.390625 0.448352 2.82812
0.390625 0.448345 2.85938
0.390625 0.448338 2.89062
0.390625 0.498189 3.60938
0.390625 0.455065 3.64062
0.390625 0.448129 3.67188
0.390625 0.448118 3.73438
0.390625 0.448108 3.76562
0.390625 0.448097 3.79688
0.390625 0.448085 3.85938
0.390625 0.448074 3.89062
0.390625 0.448062 3.95312
0.390625 0.459581 4.14062
0.390625 0.450126 4.17188
0.390625 0.447996 4.20312
0.390625 0.44798 4.23438
0.390625 0.447964 4.29688
0.390625 0.44795 4.35938
0.390625 0.447937 4.42188
0.390625 0.447923 4.48438
0.390625 0.458197 4.70312
0.390625 0.453337 4.73438
0.390625 0.450703 4.76562
0.390625 0.453729 4.79688
0.390625 0.44918 4.82812
0.390625 0.448972 4.89062
0.390625 0.451075 4.92188
0.390625 0.448617 4.95312
0.390625 0.450557 5.01562
0.390625 0.448898 5.04688
0.390625 0.452272 5.07812
0.390625 0.450992 5.14062
0.390625 0.453457 5.17188
0.390625 0.448799 5.20312
0.390625 0.450144 5.26562
0.390625 0.449277 5.29688
0.390625 0.497592 5.76562
0.390625 0.497567 5.85938
0.390625 0.497542 5.95312
0.390625 0.497516 6.04688
0.390625 0.497489 6.14062
0.390625 0.497461 6.23438
0.390625 0.497433 6.35938
0.390625 0.497403 6.48438
0.390625 0.497372 6.57812
0.390625 0.497339 6.70312
0.390625 0.497306 6.82812
0.390625 0.497272 6.95312
0.390625 0.497237 7.10938
0.390625 0.4972 7.23438
0.390625 0.497161 7.39062
0.390625 0.49712 7.54688
0.390625 0.497079 7.70312
0.390625 0.497035 7.85938
0.40625 0.453956 0.84375
0.40625 0.448835 0.96875
0.40625 0.448802 1.09375
0.40625 0.44877 1.21875
0.40625 0.449831 1.34375
0.40625 0.452695 1.96875
0.40625 0.448542 2.09375
0.40625 0.448507 2.21875
0.40625 0.44916 2.34375
0.40625 0.448416 2.59375
0.40625 0.44838 2.71875
0.40625 0.448346 2.84375
0.40625 0.448338 2.90625
0.40625 0.465921 3.59375
0.40625 0.448119 3.71875
0.40625 0.448086 3.84375
0.40625 0.448063 3.96875
0.40625 0.447981 4.21875
0.40625 0.44795 4.34375
0.40625 0.447924 4.46875
0.40625 0.448726 4.71875
0.40625 0.452185 4.84375
0.40625 0.451271 4.96875
0.40625 0.448944 5.09375
0.40625 0.451897 5.21875
0.40625 0.453249 5.34375
0.40625 0.497568 5.84375
0.40625 0.497543 5.96875
0.40625 0.497517 6.03125
0.40625 0.497462 6.21875
0.40625 0.497434 6.34375
0.40625 0.497404 6.46875
0.40625 0.497373 6.59375
0.40625 0.497341 6.71875
0.40625 0.497308 6.84375
0.40625 0.497273 6.96875
0.40625 0.497238 7.09375
0.40625 0.497201 7.21875
0.40625 0.497162 7.40625
0.40625 0.497122 7.53125
0.40625 0.49708 7.71875
0.40625 0.497036 7.84375
0.421875 0.454587 0.859375
0.421875 0.450401 0.890625
0.421875 0.448852 0.921875
0.421875 0.448844 0.953125
0.421875 0.448836 0.984375
0.421875 0.448828 1.01562
0.421875 0.448819 1.04688
0.421875 0.448811 1.07812
0.421875 0.448804 1.10938
0.421875 0.448795 1.14062
0.421875 0.448787 1.17188
0.421875 0.44878 1.20312
0.421875 0.448771 1.23438
0.421875 0.448763 1.26562
0.421875 0.448801 1.29688
0.421875 0.449834 1.32812
0.421875 0.489103 1.51562
0.421875 0.487934 1.54688
0.421875 0.49269 1.57812
0.421875 0.495786 1.60938
0.421875 0.503565 1.64062
0.421875 0.506541 1.67188
0.421875 0.514713 1.70312
0.421875 0.51769 1.73438
0.421875 0.521988 1.76562
0.421875 0.528789 1.79688
0.421875 0.534767 1.82812
0.421875 0.539122 1.85938
0.421875 0.555426 1.98438
0.421875 0.449404 2.01562
0.421875 0.448559 2.04688
0.421875 0.44855 2.07812
0.421875 0.448541 2.10938
0.421875 0.448534 2.14062
0.421875 0.448526 2.17188
0.421875 0.448518 2.20312
0.421875 0.448508 2.23438
0.421875 0.448498 2.26562
0.421875 0.448491 2.29688
0.421875 0.448484 2.32812
0.421875 0.449168 2.35938
0.421875 0.46523 2.54688
0.421875 0.448609 2.57812
0.421875 0.448414 2.60938
0.421875 0.448405 2.64062
0.421875 0.448397 2.67188
0.421875 0.448387 2.70312
0.421875 0.448377 2.73438
0.421875 0.448367 2.76562
0.421875 0.448357 2.79688
0.421875 0.44835 2.82812
0.421875 0.448343 2.85938
0.421875 0.448336 2.89062
0.421875 0.510913 3.60938
0.421875 0.455387 3.64062
0.421875 0.448127 3.67188
0.421875 0.448117 3.73438
0.421875 0.448106 3.76562
0.421875 0.448096 3.79688
0.421875 0.448084 3.85938
0.421875 0.448073 3.89062
0.421875 0.448061 3.95312
0.421875 0.460186 4.14062
0.421875 0.450128 4.17188
0.421875 0.447994 4.20312
0.421875 0.447978 4.23438
0.421875 0.447962 4.29688
0.421875 0.447948 4.35938
0.421875 0.447935 4.42188
0.421875 0.447922 4.48438
0.421875 0.462423 4.67188
0.421875 0.454042 4.70312
0.421875 0.447891 4.73438
0.421875 0.447843 4.79688
0.421875 0.447835 4.89062
0.421875 0.447826 4.95312
0.421875 0.447817 5.01562
0.421875 0.447807 5.10938
0.421875 0.447746 5.17188
0.421875 0.447726 5.26562
0.421875 0.497566 5.85938
0.421875 0.497541 5.95312
0.421875 0.497514 6.04688
0.421875 0.497488 6.14062
0.421875 0.49746 6.23438
0.421875 0.497431 6.35938
0.421875 0.497402 6.48438
0.421875 0.49737 6.57812
0.421875 0.497339 6.70312
0.421875 0.497306 6.82812
0.421875 0.497271 6.95312
0.421875 0.497236 7.10938
0.421875 0.497199 7.23438
0.421875 0.49716 7.39062
0.421875 0.497119 7.54688
0.421875 0.497078 7.70312
0.421875 0.497034 7.85938
0.453125 0.454587 0.859375
0.453125 0.450381 0.890625
0.453125 0.448851 0.921875
0.453125 0.448843 0.953125
0.453125 0.448834 0.984375
0.453125 0.448827 1.01562
0.453125 0.448818 1.04688
0.453125 0.44881 1.07812
0.453125 0.448802 1.10938
0.453125 0.448794 1.14062
0.453125 0.448786 1.17188
0.453125 0.448778 1.20312
0.453125 0.44877 1.23438
0.453125 0.448762 1.26562
0.453125 0.448799 1.29688
0.453125 0.449835 1.32812
0.453125 0.489483 1.48438
0.453125 0.467958 1.51562
0.453125 0.45202 1.54688
0.453125 0.452091 1.57812
0.453125 0.452161 1.60938
0.453125 0.452196 1.64062
0.453125 0.452494 1.67188
0.453125 0.452106 1.70312
0.453125 0.452235 1.73438
0.453125 0.451945 1.76562
0.453125 0.452183 1.79688
0.453125 0.452148 1.82812
0.453125 0.452459 1.85938
0.453125 0.541541 1.98438
0.453125 0.449333 2.01562
0.453125 0.448557 2.04688
0.453125 0.448548 2.07812
0.453125 0.448539 2.10938
0.453125 0.448532 2.14062
0.453125 0.448524 2.17188
0.453125 0.448516 2.20312
0.453125 0.448506 2.23438
0.453125 0.448495 2.26562
0.453125 0.448489 2.29688
0.453125 0.448482 2.32812
0.453125 0.449175 2.35938
0.453125 0.465348 2.54688
0.453125 0.448599 2.57812
0.453125 0.448413 2.60938
0.453125 0.448404 2.64062
0.453125 0.448395 2.67188
0.453125 0.448385 2.70312
0.453125 0.448376 2.73438
0.453125 0.448366 2.76562
0.453125 0.448356 2.79688
0.453125 0.448349 2.82812
0.453125 0.448342 2.85938
0.453125 0.448335 2.89062
0.453125 0.51257 3.60938
0.453125 0.454979 3.64062
0.453125 0.448126 3.67188
0.453125 0.448115 3.73438
0.453125 0.448105 3.76562
0.453125 0.448094 3.79688
0.453125 0.448083 3.85938
0.453125 0.448071 3.89062
0.453125 0.44806 3.95312
0.453125 0.459573 4.14062
0.453125 0.450131 4.17188
0.453125 0.447992 4.20312
0.453125 0.447976 4.23438
0.453125 0.44796 4.29688
0.453125 0.447947 4.35938
0.453125 0.447934 4.42188
0.453125 0.447921 4.48438
0.453125 0.46242 4.67188
0.453125 0.45432 4.70312
0.453125 0.447888 4.73438
0.453125 0.447838 4.79688
0.453125 0.44782 4.89062
0.453125 0.447802 4.95312
0.453125 0.447783 5.01562
0.453125 0.447764 5.10938
0.453125 0.447744 5.17188
0.453125 0.447723 5.26562
0.453125 0.497539 5.95312
0.453125 0.497513 6.04688
0.453125 0.497486 6.14062
0.453125 0.497458 6.23438
0.453125 0.497429 6.35938
0.453125 0.4974 6.48438
0.453125 0.497369 6.57812
0.453125 0.497337 6.70312
0.453125 0.497304 6.82812
0.453125 0.49727 6.95312
0.453125 0.497234 7.10938
0.453125 0.497196 7.23438
0.453125 0.497158 7.39062
0.453125 0.497118 7.54688
0.453125 0.497075 7.70312
0.453125 0.497032 7.85938
0.46875 0.466367 1.46875
0.46875 0.449831 1.59375
0.46875 0.448856 1.71875
0.46875 0.450855 1.84375
0.484375 0.45457 0.859375
0.484375 0.450397 0.890625
0.484375 0.44885 0.921875
0.484375 0.448841 0.953125
0.484375 0.448833 0.984375
0.484375 0.448826 1.01562
0.484375 0.448816 1.04688
0.484375 0.448809 1.07812
0.484375 0.448801 1.10938
0.484375 0.448792 1.14062
0.484375 0.448784 1.17188
0.484375 0.448776 1.20312
0.484375 0.448768 1.23438
0.484375 0.44876 1.26562
0.484375 0.448799 1.29688
0.484375 0.449837 1.32812
0.484375 0.486752 1.48438
0.484375 0.455788 1.51562
0.484375 0.448687 1.54688
0.484375 0.44868 1.57812
0.484375 0.448671 1.60938
0.484375 0.448662 1.64062
0.484375 0.448653 1.67188
0.484375 0.448645 1.70312
0.484375 0.448637 1.73438
0.484375 0.448628 1.76562
0.484375 0.44862 1.79688
0.484375 0.448612 1.82812
0.484375 0.448605 1.85938
0.484375 0.464443 1.98438
0.484375 0.449398 2.01562
0.484375 0.448555 2.04688
0.484375 0.448546 2.07812
0.484375 0.448537 2.10938
0.484375 0.44853 2.14062
0.484375 0.448522 2.17188
0.484375 0.448514 2.20312
0.484375 0.448504 2.23438
0.484375 0.448494 2.26562
0.484375 0.448487 2.29688
0.484375 0.44848 2.32812
0.484375 0.449182 2.35938
0.484375 0.465242 2.54688
0.484375 0.448599 2.57812
0.484375 0.448411 2.60938
0.484375 0.448403 2.64062
0.484375 0.448393 2.67188
0.484375 0.448384 2.70312
0.484375 0.448374 2.73438
0.484375 0.448364 2.76562
0.484375 0.448354 2.79688
0.484375 0.448347 2.82812
0.484375 0.44834 2.85938
0.484375 0.448333 2.89062
0.484375 0.512824 3.60938
0.484375 0.454835 3.64062
0.484375 0.448124 3.67188
0.484375 0.448114 3.73438
0.484375 0.448103 3.76562
0.484375 0.448092 3.79688
0.484375 0.448081 3.85938
0.484375 0.44807 3.89062
0.484375 0.448059 3.95312
0.484375 0.460193 4.14062
0.484375 0.450134 4.17188
0.484375 0.44799 4.20312
0.484375 0.447974 4.23438
0.484375 0.447958 4.29688
0.484375 0.447946 4.35938
0.484375 0.447933 4.42188
0.484375 0.447919 4.48438
0.484375 0.462418 4.67188
0.484375 0.454317 4.70312
0.484375 0.447886 4.73438
0.484375 0.447836 4.79688
0.484375 0.447818 4.89062
0.484375 0.4478 4.95312
0.484375 0.447781 5.01562
0.484375 0.447761 5.10938
0.484375 0.447741 5.17188
0.484375 0.447721 5.26562
0.484375 0.497537 5.95312
0.484375 0.497511 6.04688
0.484375 0.497484 6.14062
0.484375 0.497456 6.23438
0.484375 0.497428 6.35938
0.484375 0.497398 6.48438
0.484375 0.497368 6.57812
0.484375 0.497335 6.70312
0.484375 0.497303 6.82812
0.484375 0.497268 6.95312
0.484375 0.497232 7.10938
0.484375 0.497195 7.23438
0.484375 0.497156 7.39062
0.484375 0.497116 7.54688
0.484375 0.497074 7.70312
0.484375 0.497031 7.85938
0.515625 0.454587 0.859375
0.515625 0.450369 0.890625
0.515625 0.448848 0.921875
0.515625 0.448839 0.953125
0.515625 0.448831 0.984375
0.515625 0.448823 1.01562
0.515625 0.448814 1.04688
0.515625 0.448806 1.07812
0.515625 0.448798 1.10938
0.515625 0.44879 1.14062
0.515625 0.448783 1.17188
0.515625 0.448775 1.20312
0.515625 0.448767 1.23438
0.515625 0.448758 1.26562
0.515625 0.448798 1.29688
0.515625 0.449839 1.32812
0.515625 0.486554 1.48438
0.515625 0.455738 1.51562
0.515625 0.448686 1.54688
0.515625 0.448678 1.57812
0.515625 0.448669 1.60938
0.515625 0.448661 1.64062
0.515625 0.448652 1.67188
0.515625 0.448643 1.70312
0.515625 0.448635 1.73438
0.515625 0.448626 1.76562
0.515625 0.448618 1.79688
0.515625 0.44861 1.82812
0.515625 0.448603 1.85938
0.515625 0.464003 1.98438
0.515625 0.449342 2.01562
0.515625 0.448553 2.04688
0.515625 0.448544 2.07812
0.515625 0.448536 2.10938
0.515625 0.448528 2.14062
0.515625 0.44852 2.17188
0.515625 0.448512 2.20312
0.515625 0.448502 2.23438
0.515625 0.448492 2.26562
0.515625 0.448485 2.29688
0.515625 0.448478 2.32812
0.515625 0.449189 2.35938
0.515625 0.465396 2.54688
0.515625 0.448599 2.57812
0.515625 0.44841 2.60938
0.515625 0.448401 2.64062
0.515625 0.448392 2.67188
0.515625 0.448382 2.70312
0.515625 0.448373 2.73438
0.515625 0.448363 2.76562
0.515625 0.448353 2.79688
0.515625 0.448346 2.82812
0.515625 0.448339 2.85938
0.515625 0.448331 2.89062
0.515625 0.472316 3.10938
0.515625 0.473019 3.14062
0.515625 0.474253 3.17188
0.515625 0.47603 3.20312
0.515625 0.477245 3.23438
0.515625 0.478194 3.26562
0.515625 0.481154 3.29688
0.515625 0.484655 3.32812
0.515625 0.486519 3.35938
0.515625 0.493749 3.39062
0.515625 0.492481 3.42188
0.515625 0.472412 3.45312
0.515625 0.512232 3.60938
0.515625 0.455398 3.64062
0.515625 0.448123 3.67188
0.515625 0.448112 3.73438
0.515625 0.448102 3.76562
0.515625 0.448091 3.79688
0.515625 0.44808 3.85938
0.515625 0.448069 3.89062
0.515625 0.448057 3.95312
0.515625 0.459581 4.14062
0.515625 0.450137 4.17188
0.515625 0.447987 4.20312
0.515625 0.447971 4.23438
0.515625 0.447957 4.29688
0.515625 0.447944 4.35938
0.515625 0.447931 4.42188
0.515625 0.447918 4.48438
0.515625 0.462415 4.67188
0.515625 0.454315 4.70312
0.515625 0.447883 4.73438
0.515625 0.447833 4.79688
0.515625 0.447815 4.89062
0.515625 0.447796 4.95312
0.515625 0.447778 5.01562
0.515625 0.447758 5.10938
0.515625 0.447738 5.17188
0.515625 0.447718 5.26562
0.53125 0.453922 0.84375
0.53125 0.448828 0.96875
0.53125 0.448796 1.09375
0.53125 0.448764 1.21875
0.53125 0.449838 1.34375
0.53125 0.466323 1.46875
0.53125 0.448667 1.59375
0.53125 0.448632 1.71875
0.53125 0.448602 1.84375
0.53125 0.452677 1.96875
0.53125 0.448534 2.09375
0.53125 0.448499 2.21875
0.53125 0.449186 2.34375
0.53125 0.44841 2.59375
0.53125 0.448374 2.71875
0.53125 0.448339 2.84375
0.53125 0.448332 2.90625
0.53125 0.448518 3.09375
0.53125 0.448496 3.21875
0.53125 0.451236 3.34375
0.53125 0.44818 3.46875
0.53125 0.465939 3.59375
0.53125 0.448113 3.71875
0.53125 0.448081 3.84375
0.53125 0.448058 3.96875
0.53125 0.447972 4.21875
0.53125 0.447945 4.34375
0.53125 0.447918 4.46875
0.53125 0.447885 4.71875
0.53125 0.447834 4.78125
0.53125 0.447798 4.96875
0.53125 0.44776 5.09375
0.53125 0.44774 5.15625
0.53125 0.447719 5.28125
0.546875 0.454545 0.859375
0.546875 0.450373 0.890625
0.546875 0.448846 0.921875
0.546875 0.448837 0.953125
0.546875 0.448829 0.984375
0.546875 0.448821 1.01562
0.546875 0.448813 1.04688
0.546875 0.448805 1.07812
0.546875 0.448797 1.10938
0.546875 0.448789 1.14062
0.546875 0.448781 1.17188
0.546875 0.448773 1.20312
0.546875 0.448765 1.23438
0.546875 0.448757 1.26562
0.546875 0.448796 1.29688
0.546875 0.44984 1.32812
0.546875 0.48638 1.48438
0.546875 0.455727 1.51562
0.546875 0.448684 1.54688
0.546875 0.448676 1.57812
0.546875 0.448668 1.60938
0.546875 0.448659 1.64062
0.546875 0.44865 1.67188
0.546875 0.448642 1.70312
0.546875 0.448633 1.73438
0.546875 0.448624 1.76562
0.546875 0.448617 1.79688
0.546875 0.448608 1.82812
0.546875 0.448601 1.85938
0.546875 0.463703 1.98438
0.546875 0.449341 2.01562
0.546875 0.448551 2.04688
0.546875 0.448542 2.07812
0.546875 0.448533 2.10938
0.546875 0.448526 2.14062
0.546875 0.448518 2.17188
0.546875 0.44851 2.20312
0.546875 0.4485 2.23438
0.546875 0.44849 2.26562
0.546875 0.448483 2.29688
0.546875 0.448476 2.32812
0.546875 0.449195 2.35938
0.546875 0.465254 2.54688
0.546875 0.4486 2.57812
0.546875 0.448408 2.60938
0.546875 0.448399 2.64062
0.546875 0.44839 2.67188
0.546875 0.448381 2.70312
0.546875 0.448371 2.73438
0.546875 0.448361 2.76562
0.546875 0.448351 2.79688
0.546875 0.448344 2.82812
0.546875 0.448337 2.85938
0.546875 0.44833 2.89062
0.546875 0.470647 3.07812
0.546875 0.459079 3.10938
0.546875 0.452687 3.14062
0.546875 0.451947 3.17188
0.546875 0.451733 3.20312
0.546875 0.4535 3.23438
0.546875 0.451633 3.26562
0.546875 0.451805 3.29688
0.546875 0.452918 3.32812
0.546875 0.452044 3.35938
0.546875 0.451914 3.39062
0.546875 0.451799 3.42188
0.546875 0.454764 3.45312
0.546875 0.50552 3.60938
0.546875 0.45499 3.64062
0.546875 0.448121 3.67188
0.546875 0.448111 3.73438
0.546875 0.4481 3.76562
0.546875 0.448089 3.79688
0.546875 0.448078 3.85938
0.546875 0.448067 3.89062
0.546875 0.448056 3.95312
0.546875 0.459902 4.14062
0.546875 0.45014 4.17188
0.546875 0.447985 4.20312
0.546875 0.44797 4.23438
0.546875 0.447956 4.29688
0.546875 0.447943 4.35938
0.546875 0.44793 4.42188
0.546875 0.447916 4.48438
0.546875 0.462413 4.67188
0.546875 0.454313 4.70312
0.546875 0.447881 4.73438
0.546875 0.447831 4.79688
0.546875 0.447813 4.89062
0.546875 0.447794 4.95312
0.546875 0.447776 5.01562
0.546875 0.447756 5.10938
0.546875 0.447736 5.17188
0.546875 0.447716 5.26562
0.5625 0.448828 0.9375
0.5625 0.466323 1.4375
0.5625 0.452677 1.9375
0.5625 0.449186 2.3125
0.5625 0.448332 2.9375
0.5625 0.44818 3.4375
0.5625 0.448058 3.9375
0.5625 0.447918 4.4375
0.5625 0.447798 4.9375
0.5625 0.447719 5.3125
0.578125 0.454553 0.859375
0.578125 0.450381 0.890625
0.578125 0.448844 0.921875
0.578125 0.448835 0.953125
0.578125 0.448828 0.984375
0.578125 0.448819 1.01562
0.578125 0.448811 1.04688
0.578125 0.448804 1.07812
0.578125 0.448796 1.10938
0.578125 0.448787 1.14062
0.578125 0.44878 1.17188
0.578125 0.448772 1.20312
0.578125 0.448764 1.23438
0.578125 0.448755 1.26562
0.578125 0.448797 1.29688
0.578125 0.449842 1.32812
0.578125 0.486747 1.48438
0.578125 0.455725 1.51562
0.578125 0.448682 1.54688
0.578125 0.448674 1.57812
0.578125 0.448666 1.60938
0.578125 0.448657 1.64062
0.578125 0.448648 1.67188
0.578125 0.44864 1.70312
0.578125 0.448632 1.73438
0.578125 0.448622 1.76562
0.578125 0.448615 1.79688
0.578125 0.448606 1.82812
0.578125 0.448599 1.85938
0.578125 0.46372 1.98438
0.578125 0.449389 2.01562
0.578125 0.448549 2.04688
0.578125 0.44854 2.07812
0.578125 0.448531 2.10938
0.578125 0.448524 2.14062
0.578125 0.448516 2.17188
0.578125 0.448508 2.20312
0.578125 0.448498 2.23438
0.578125 0.448488 2.26562
0.578125 0.448481 2.29688
0.578125 0.448474 2.32812
0.578125 0.449202 2.35938
0.578125 0.465409 2.54688
0.578125 0.4486 2.57812
0.578125 0.448407 2.60938
0.578125 0.448398 2.64062
0.578125 0.448389 2.67188
0.578125 0.448379 2.70312
0.578125 0.44837 2.73438
0.578125 0.44836 2.76562
0.578125 0.44835 2.79688
0.578125 0.448343 2.82812
0.578125 0.448336 2.85938
0.578125 0.448328 2.89062
0.578125 0.46868 3.07812
0.578125 0.452627 3.10938
0.578125 0.448262 3.14062
0.578125 0.448253 3.17188
0.578125 0.448244 3.20312
0.578125 0.448236 3.23438
0.578125 0.448227 3.26562
0.578125 0.448217 3.29688
0.578125 0.448208 3.35938
0.578125 0.448199 3.39062
0.578125 0.448189 3.42188
0.578125 0.448179 3.45312
0.578125 0.468762 3.60938
0.578125 0.454845 3.64062
0.578125 0.448119 3.67188
0.578125 0.448109 3.73438
0.578125 0.448099 3.76562
0.578125 0.448088 3.79688
0.578125 0.448077 3.85938
0.578125 0.448066 3.89062
0.578125 0.448055 3.95312
0.578125 0.459906 4.14062
0.578125 0.450143 4.17188
0.578125 0.447983 4.20312
0.578125 0.447967 4.23438
0.578125 0.447954 4.29688
0.578125 0.447941 4.35938
0.578125 0.447928 4.42188
0.578125 0.447915 4.48438
0.578125 0.46241 4.67188
0.578125 0.45431 4.70312
0.578125 0.447879 4.73438
0.578125 0.447827 4.79688
0.578125 0.44781 4.89062
0.578125 0.447792 4.95312
0.578125 0.447773 5.01562
0.578125 0.447753 5.10938
0.578125 0.447734 5.17188
0.578125 0.447714 5.26562
0.609375 0.454539 0.859375
0.609375 0.450055 0.890625
0.609375 0.448843 0.921875
0.609375 0.448835 0.953125
0.609375 0.448827 0.984375
0.609375 0.448819 1.01562
0.609375 0.44881 1.04688
0.609375 0.448802 1.07812
0.609375 0.448794 1.10938
0.609375 0.448786 1.14062
0.609375 0.448778 1.17188
0.609375 0.44877 1.20312
0.609375 0.448762 1.23438
0.609375 0.448753 1.26562
0.609375 0.448795 1.29688
0.609375 0.449843 1.32812
0.609375 0.486385 1.48438
0.609375 0.455765 1.51562
0.609375 0.44868 1.54688
0.609375 0.448672 1.57812
0.609375 0.448664 1.60938
0.609375 0.448656 1.64062
0.609375 0.448646 1.67188
0.609375 0.448638 1.70312
0.609375 0.44863 1.73438
0.609375 0.448621 1.76562
0.609375 0.448613 1.79688
0.609375 0.448604 1.82812
0.609375 0.448597 1.85938
0.609375 0.463762 1.98438
0.609375 0.449335 2.01562
0.609375 0.448547 2.04688
0.609375 0.448538 2.07812
0.609375 0.448529 2.10938
0.609375 0.448522 2.14062
0.609375 0.448514 2.17188
0.609375 0.448506 2.20312
0.609375 0.448496 2.23438
0.609375 0.448485 2.26562
0.609375 0.448479 2.29688
0.609375 0.448472 2.32812
0.609375 0.449209 2.35938
0.609375 0.465201 2.54688
0.609375 0.448601 2.57812
0.609375 0.448405 2.60938
0.609375 0.448396 2.64062
0.609375 0.448387 2.67188
0.609375 0.448378 2.70312
0.609375 0.448368 2.73438
0.609375 0.448358 2.76562
0.609375 0.448348 2.79688
0.609375 0.448341 2.82812
0.609375 0.448334 2.85938
0.609375 0.448327 2.89062
0.609375 0.468884 3.07812
0.609375 0.452359 3.10938
0.609375 0.448259 3.14062
0.609375 0.448251 3.17188
0.609375 0.448242 3.20312
0.609375 0.448234 3.23438
0.609375 0.448225 3.26562
0.609375 0.448215 3.29688
0.609375 0.448206 3.35938
0.609375 0.448196 3.39062
0.609375 0.448187 3.42188
0.609375 0.448177 3.45312
0.609375 0.465956 3.60938
0.609375 0.455343 3.64062
0.609375 0.448118 3.67188
0.609375 0.448108 3.73438
0.609375 0.448097 3.76562
0.609375 0.448086 3.79688
0.609375 0.448076 3.85938
0.609375 0.448065 3.89062
0.609375 0.448054 3.95312
0.609375 0.459909 4.14062
0.609375 0.450146 4.17188
0.609375 0.447981 4.20312
0.609375 0.447965 4.23438
0.609375 0.447953 4.29688
0.609375 0.44794 4.35938
0.609375 0.447927 4.42188
0.609375 0.447913 4.48438
0.609375 0.462408 4.67188
0.609375 0.454308 4.70312
0.609375 0.447876 4.73438
0.609375 0.447825 4.79688
0.609375 0.447808 4.89062
0.609375 0.447789 4.95312
0.609375 0.447771 5.01562
0.609375 0.447751 5.10938
0.609375 0.447732 5.17188
0.609375 0.447712 5.26562
0.640625 0.448847 0.890625
0.640625 0.44884 0.921875
0.640625 0.448833 0.953125
0.640625 0.448825 0.984375
0.640625 0.448817 1.01562
0.640625 0.448809 1.04688
0.640625 0.4488 1.07812
0.640625 0.448792 1.10938
0.640625 0.448784 1.14062
0.640625 0.448776 1.17188
0.640625 0.448769 1.20312
0.640625 0.448761 1.23438
0.640625 0.448752 1.26562
0.640625 0.448794 1.29688
0.640625 0.449845 1.32812
0.640625 0.486797 1.48438
0.640625 0.455709 1.51562
0.640625 0.448679 1.54688
0.640625 0.448671 1.57812
0.640625 0.448662 1.60938
0.640625 0.448654 1.64062
0.640625 0.448645 1.67188
0.640625 0.448637 1.70312
0.640625 0.448628 1.73438
0.640625 0.448619 1.76562
0.640625 0.448611 1.79688
0.640625 0.448602 1.82812
0.640625 0.448595 1.85938
0.640625 0.463843 1.98438
0.640625 0.449365 2.01562
0.640625 0.448545 2.04688
0.640625 0.448536 2.07812
0.640625 0.448528 2.10938
0.640625 0.44852 2.14062
0.640625 0.448512 2.17188
0.640625 0.448504 2.20312
0.640625 0.448494 2.23438
0.640625 0.448483 2.26562
0.640625 0.448477 2.29688
0.640625 0.44847 2.32812
0.640625 0.449216 2.35938
0.640625 0.465421 2.54688
0.640625 0.448601 2.57812
0.640625 0.448404 2.60938
0.640625 0.448395 2.64062
0.640625 0.448386 2.67188
0.640625 0.448376 2.70312
0.640625 0.448366 2.73438
0.640625 0.448357 2.76562
0.640625 0.448346 2.79688
0.640625 0.44834 2.82812
0.640625 0.448333 2.85938
0.640625 0.448325 2.89062
0.640625 0.468476 3.07812
0.640625 0.452916 3.10938
0.640625 0.448257 3.14062
0.640625 0.448249 3.17188
0.640625 0.44824 3.20312
0.640625 0.448231 3.23438
0.640625 0.448222 3.26562
0.640625 0.448213 3.29688
0.640625 0.448203 3.35938
0.640625 0.448194 3.39062
0.640625 0.448185 3.42188
0.640625 0.448175 3.45312
0.640625 0.465961 3.60938
0.640625 0.455078 3.64062
0.640625 0.448116 3.67188
0.640625 0.448106 3.73438
0.640625 0.448096 3.76562
0.640625 0.448085 3.79688
0.640625 0.448074 3.85938
0.640625 0.448063 3.89062
0.640625 0.448052 3.95312
0.640625 0.459913 4.14062
0.640625 0.450149 4.17188
0.640625 0.447979 4.20312
0.640625 0.447964 4.23438
0.640625 0.447951 4.29688
0.640625 0.447939 4.35938
0.640625 0.447926 4.42188
0.640625 0.447912 4.48438
0.640625 0.462405 4.67188
0.640625 0.45459 4.70312
0.640625 0.447873 4.73438
0.640625 0.447823 4.79688
0.640625 0.447805 4.89062
0.640625 0.447787 4.95312
0.640625 0.447768 5.01562
0.640625 0.447748 5.10938
0.640625 0.447729 5.17188
0.640625 0.447709 5.26562
0.65625 0.448822 0.96875
0.65625 0.448789 1.09375
0.65625 0.448758 1.21875
0.65625 0.449844 1.34375
0.65625 0.466293 1.46875
0.65625 0.44866 1.59375
0.65625 0.448625 1.71875
0.65625 0.448594 1.84375
0.65625 0.452659 1.96875
0.65625 0.448526 2.09375
0.65625 0.448491 2.21875
0.65625 0.449212 2.34375
0.65625 0.448405 2.59375
0.65625 0.448367 2.71875
0.65625 0.448333 2.84375
0.65625 0.448326 2.90625
0.65625 0.448267 3.09375
0.65625 0.448232 3.21875
0.65625 0.448205 3.34375
0.65625 0.448176 3.46875
0.65625 0.465959 3.59375
0.65625 0.448107 3.71875
0.65625 0.448075 3.84375
0.65625 0.448053 3.96875
0.65625 0.447964 4.21875
0.65625 0.447939 4.34375
0.65625 0.447913 4.46875
0.65625 0.447875 4.71875
0.65625 0.447824 4.78125
0.65625 0.447788 4.96875
0.65625 0.44775 5.09375
0.65625 0.44773 5.15625
0.65625 0.447711 5.28125
0.671875 0.448829 0.953125
0.671875 0.448822 0.984375
0.671875 0.448814 1.01562
0.671875 0.448806 1.04688
0.671875 0.448798 1.07812
0.671875 0.44879 1.10938
0.671875 0.448782 1.14062
0.671875 0.448774 1.17188
0.671875 0.448767 1.20312
0.671875 0.448759 1.23438
0.671875 0.44875 1.26562
0.671875 0.448793 1.29688
0.671875 0.449847 1.32812
0.671875 0.486341 1.48438
0.671875 0.45571 1.51562
0.671875 0.448677 1.54688
0.671875 0.448669 1.57812
0.671875 0.448661 1.60938
0.671875 0.448652 1.64062
0.671875 0.448643 1.67188
0.671875 0.448635 1.70312
0.671875 0.448626 1.73438
0.671875 0.448617 1.76562
0.671875 0.448609 1.79688
0.671875 0.4486 1.82812
0.671875 0.448593 1.85938
0.671875 0.463658 1.98438
0.671875 0.449329 2.01562
0.671875 0.448543 2.04688
0.671875 0.448534 2.07812
0.671875 0.448525 2.10938
0.671875 0.448518 2.14062
0.671875 0.44851 2.17188
0.671875 0.448502 2.20312
0.671875 0.448492 2.23438
0.671875 0.448481 2.26562
0.671875 0.448475 2.29688
0.671875 0.448468 2.32812
0.671875 0.449222 2.35938
0.671875 0.465538 2.54688
0.671875 0.448772 2.57812
0.671875 0.448622 2.60938
0.671875 0.448606 2.64062
0.671875 0.448588 2.67188
0.671875 0.448556 2.70312
0.671875 0.448523 2.73438
0.671875 0.448487 2.76562
0.671875 0.448621 2.79688
0.671875 0.448526 2.82812
0.671875 0.448552 2.85938
0.671875 0.448515 2.89062
0.671875 0.469005 3.07812
0.671875 0.452276 3.10938
0.671875 0.448255 3.14062
0.671875 0.448246 3.17188
0.671875 0.448238 3.20312
0.671875 0.448229 3.23438
0.671875 0.44822 3.26562
0.671875 0.448211 3.29688
0.671875 0.448202 3.35938
0.671875 0.448192 3.39062
0.671875 0.448183 3.42188
0.671875 0.448174 3.45312
0.671875 0.465965 3.60938
0.671875 0.454855 3.64062
0.671875 0.448115 3.67188
0.671875 0.448105 3.73438
0.671875 0.448094 3.76562
0.671875 0.448083 3.79688
0.671875 0.448073 3.85938
0.671875 0.448062 3.89062
0.671875 0.448051 3.95312
0.671875 0.459917 4.14062
0.671875 0.450152 4.17188
0.671875 0.447977 4.20312
0.671875 0.447962 4.23438
0.671875 0.44795 4.29688
0.671875 0.447937 4.35938
0.671875 0.447924 4.42188
0.671875 0.447911 4.48438
0.671875 0.462403 4.67188
0.671875 0.454303 4.70312
0.671875 0.447871 4.73438
0.671875 0.44782 4.79688
0.671875 0.447803 4.89062
0.671875 0.447784 4.95312
0.671875 0.447765 5.01562
0.671875 0.447747 5.10938
0.671875 0.447727 5.17188
0.671875 0.447707 5.26562
0.703125 0.448819 0.984375
0.703125 0.448813 1.01562
0.703125 0.448805 1.04688
0.703125 0.448797 1.07812
0.703125 0.448789 1.10938
0.703125 0.448781 1.14062
0.703125 0.448773 1.17188
0.703125 0.448766 1.20312
0.703125 0.448757 1.23438
0.703125 0.448749 1.26562
0.703125 0.448792 1.29688
0.703125 0.449849 1.32812
0.703125 0.48642 1.48438
0.703125 0.455727 1.51562
0.703125 0.448675 1.54688
0.703125 0.448667 1.57812
0.703125 0.448659 1.60938
0.703125 0.44865 1.64062
0.703125 0.448641 1.67188
0.703125 0.448633 1.70312
0.703125 0.448624 1.73438
0.703125 0.448615 1.76562
0.703125 0.448607 1.79688
0.703125 0.448598 1.82812
0.703125 0.448591 1.85938
0.703125 0.46383 1.98438
0.703125 0.449377 2.01562
0.703125 0.448541 2.04688
0.703125 0.448533 2.07812
0.703125 0.448523 2.10938
0.703125 0.448516 2.14062
0.703125 0.448508 2.17188
0.703125 0.4485 2.20312
0.703125 0.44849 2.23438
0.703125 0.448479 2.26562
0.703125 0.448473 2.29688
0.703125 0.448466 2.32812
0.703125 0.449229 2.35938
0.703125 0.466987 2.54688
0.703125 0.45112 2.57812
0.703125 0.451175 2.60938
0.703125 0.450793 2.64062
0.703125 0.45141 2.67188
0.703125 0.450955 2.70312
0.703125 0.45068 2.73438
0.703125 0.45122 2.76562
0.703125 0.450742 2.79688
0.703125 0.451171 2.82812
0.703125 0.451129 2.85938
0.703125 0.451221 2.89062
0.703125 0.468385 3.07812
0.703125 0.452756 3.10938
0.703125 0.448253 3.14062
0.703125 0.448244 3.17188
0.703125 0.448236 3.20312
0.703125 0.448226 3.23438
0.703125 0.448218 3.26562
0.703125 0.448208 3.29688
0.703125 0.4482 3.35938
0.703125 0.44819 3.39062
0.703125 0.448181 3.42188
0.703125 0.448171 3.45312
0.703125 0.46597 3.60938
0.703125 0.455353 3.64062
0.703125 0.448113 3.67188
0.703125 0.448103 3.73438
0.703125 0.448093 3.76562
0.703125 0.448082 3.79688
0.703125 0.448071 3.85938
0.703125 0.44806 3.89062
0.703125 0.448049 3.95312
0.703125 0.460242 4.14062
0.703125 0.450155 4.17188
0.703125 0.447975 4.20312
0.703125 0.447961 4.23438
0.703125 0.447949 4.29688
0.703125 0.447936 4.35938
0.703125 0.447923 4.42188
0.703125 0.447909 4.48438
0.703125 0.4624 4.67188
0.703125 0.454016 4.70312
0.703125 0.447868 4.73438
0.703125 0.447818 4.79688
0.703125 0.4478 4.89062
0.703125 0.447782 4.95312
0.703125 0.447763 5.01562
0.703125 0.447744 5.10938
0.703125 0.447725 5.17188
0.703125 0.447705 5.26562
0.734375 0.448802 1.04688
0.734375 0.448795 1.07812
0.734375 0.448788 1.10938
0.734375 0.448779 1.14062
0.734375 0.448771 1.17188
0.734375 0.448764 1.20312
0.734375 0.448755 1.23438
0.734375 0.448747 1.26562
0.734375 0.44879 1.29688
0.734375 0.44985 1.32812
0.734375 0.486631 1.48438
0.734375 0.45569 1.51562
0.734375 0.448673 1.54688
0.734375 0.448665 1.57812
0.734375 0.448657 1.60938
0.734375 0.448648 1.64062
0.734375 0.448639 1.67188
0.734375 0.448631 1.70312
0.734375 0.448622 1.73438
0.734375 0.448613 1.76562
0.734375 0.448604 1.79688
0.734375 0.448596 1.82812
0.734375 0.448589 1.85938
0.734375 0.463554 1.98438
0.734375 0.449323 2.01562
0.734375 0.448539 2.04688
0.734375 0.448531 2.07812
0.734375 0.448521 2.10938
0.734375 0.448514 2.14062
0.734375 0.448506 2.17188
0.734375 0.448498 2.20312
0.734375 0.448488 2.23438
0.734375 0.448477 2.26562
0.734375 0.448471 2.29688
0.734375 0.448464 2.32812
0.734375 0.449236 2.35938
0.734375 0.472472 2.54688
0.734375 0.459458 2.57812
0.734375 0.457683 2.60938
0.734375 0.456094 2.64062
0.734375 0.458739 2.67188
0.734375 0.455824 2.70312
0.734375 0.4577 2.73438
0.734375 0.456226 2.76562
0.734375 0.459136 2.79688
0.734375 0.457355 2.82812
0.734375 0.457541 2.85938
0.734375 0.456154 2.89062
0.734375 0.469026 3.07812
0.734375 0.452341 3.10938
0.734375 0.44825 3.14062
0.734375 0.448242 3.17188
0.734375 0.448233 3.20312
0.734375 0.448224 3.23438
0.734375 0.448216 3.26562
0.734375 0.448207 3.29688
0.734375 0.448198 3.35938
0.734375 0.448189 3.39062
0.734375 0.448179 3.42188
0.734375 0.44817 3.45312
0.734375 0.465975 3.60938
0.734375 0.455089 3.64062
0.734375 0.448112 3.67188
0.734375 0.448102 3.73438
0.734375 0.448091 3.76562
0.734375 0.448081 3.79688
0.734375 0.44807 3.85938
0.734375 0.448059 3.89062
0.734375 0.448048 3.95312
0.734375 0.459622 4.14062
0.734375 0.450157 4.17188
0.734375 0.447973 4.20312
0.734375 0.44796 4.23438
0.734375 0.447947 4.29688
0.734375 0.447935 4.35938
0.734375 0.447921 4.42188
0.734375 0.447908 4.48438
