VERSION
FIELDS x y z
SIZE 4 4 4
TYPE F F F
COUNT 1 1 1
WIDTH 1
HEIGHT 888
VIEWPOINT 0 0 0 1 0 0 0
POINTS 888
DATA ascii
-1.125 0.44877 1.625
-1.125 0.447857 5.125
-1.09375 0.499204 1.96875
-1.09375 0.492952 2.03125
-1.0625 0.448785 1.4375
-1.0625 0.44877 1.5625
-1.0625 0.48221 1.9375
-1.0625 0.457693 2.0625
-1.0625 0.455896 2.3125
-1.03125 0.448768 1.53125
-1.03125 0.448756 1.59375
-1.03125 0.44873 1.65625
-1.03125 0.448713 1.71875
-1.03125 0.477178 1.96875
-1.03125 0.466534 2.03125
-1.03125 0.450957 2.09375
-1.03125 0.452228 2.34375
-0.96875 0.464848 1.40625
-0.96875 0.448784 1.46875
-0.96875 0.448771 1.53125
-0.96875 0.448751 1.59375
-0.96875 0.448738 1.65625
-0.96875 0.448726 1.71875
-0.96875 0.485 1.96875
-0.96875 0.453457 2.03125
-0.96875 0.448615 2.09375
-0.96875 0.448584 2.21875
-0.96875 0.448577 2.28125
-0.96875 0.460619 2.53125
-0.96875 0.449494 2.59375
-0.96875 0.448445 2.78125
-0.96875 0.450158 2.84375
-0.96875 0.457353 3.03125
-0.9375 0.448574 2.3125
-0.9375 0.448472 2.6875
-0.9375 0.448903 2.8125
-0.9375 0.462229 3.0625
-0.9375 0.448052 4.1875
-0.9375 0.451397 4.6875
-0.9375 0.447913 4.8125
-0.90625 0.474373 1.40625
-0.90625 0.448782 1.46875
-0.90625 0.448762 1.53125
-0.90625 0.448748 1.59375
-0.90625 0.448733 1.65625
-0.90625 0.448709 1.71875
-0.90625 0.478792 1.96875
-0.90625 0.451365 2.03125
-0.90625 0.448569 2.28125
-0.90625 0.46462 2.53125
-0.90625 0.44848 2.65625
-0.90625 0.448452 2.71875
-0.90625 0.448444 2.78125
-0.90625 0.462374 3.03125
-0.90625 0.44834 3.15625
-0.90625 0.448313 3.21875
-0.84375 0.44884 1.21875
-0.84375 0.477324 1.40625
-0.84375 0.448775 1.46875
-0.84375 0.448763 1.53125
-0.84375 0.448742 1.59375
-0.84375 0.448724 1.65625
-0.84375 0.44871 1.71875
-0.84375 0.487656 1.96875
-0.84375 0.453724 2.03125
-0.84375 0.448615 2.09375
-0.84375 0.448601 2.15625
-0.84375 0.44858 2.21875
-0.84375 0.448563 2.28125
-0.84375 0.448549 2.34375
-0.84375 0.46502 2.53125
-0.84375 0.448646 2.59375
-0.84375 0.448453 2.71875
-0.84375 0.448355 3.09375
-0.84375 0.448321 3.21875
-0.84375 0.459698 3.53125
-0.84375 0.448156 3.84375
-0.84375 0.448126 3.96875
-0.8125 0.448851 1.1875
-0.8125 0.448776 1.4375
-0.8125 0.448761 1.5625
-0.8125 0.492705 1.9375
-0.8125 0.448615 2.0625
-0.8125 0.448195 3.6875
-0.8125 0.448168 3.8125
-0.78125 0.448863 1.09375
-0.78125 0.448853 1.15625
-0.78125 0.448841 1.21875
-0.78125 0.474438 1.40625
-0.78125 0.448772 1.46875
-0.78125 0.448757 1.53125
-0.78125 0.448741 1.59375
-0.78125 0.44872 1.65625
-0.78125 0.448708 1.71875
-0.78125 0.504256 1.96875
-0.78125 0.453245 2.03125
-0.78125 0.448594 2.15625
-0.78125 0.448578 2.21875
-0.78125 0.448563 2.28125
-0.78125 0.462337 2.53125
-0.78125 0.448478 2.59375
-0.78125 0.448411 2.84375
-0.78125 0.45854 3.03125
-0.78125 0.448347 3.09375
-0.78125 0.448315 3.21875
-0.78125 0.448205 3.65625
-0.78125 0.448172 3.78125
-0.78125 0.448141 3.90625
-0.78125 0.448127 3.96875
-0.71875 0.448879 1.03125
-0.71875 0.448868 1.09375
-0.71875 0.44885 1.15625
-0.71875 0.449019 1.21875
-0.71875 0.483958 1.40625
-0.71875 0.48082 1.46875
-0.71875 0.494905 1.53125
-0.71875 0.4927 1.59375
-0.71875 0.498839 1.65625
-0.71875 0.525722 1.71875
-0.71875 0.49916 1.78125
-0.71875 0.527989 1.96875
-0.71875 0.453947 2.03125
-0.71875 0.44857 2.21875
-0.71875 0.465636 2.53125
-0.71875 0.448468 2.65625
-0.71875 0.469877 3.03125
-0.71875 0.448349 3.09375
-0.71875 0.448331 3.15625
-0.71875 0.448312 3.21875
-0.71875 0.448211 3.59375
-0.71875 0.448137 3.90625
-0.71875 0.462031 4.15625
-0.71875 0.448055 4.21875
-0.6875 0.448904 0.9375
-0.6875 0.527798 1.4375
-0.6875 0.46821 1.5625
-0.6875 0.44859 2.1875
-0.6875 0.448534 2.3125
-0.6875 0.448443 2.6875
-0.6875 0.448411 2.8125
-0.6875 0.462038 4.1875
-0.6875 0.447834 5.0625
-0.65625 0.448906 0.90625
-0.65625 0.448896 0.96875
-0.65625 0.448879 1.03125
-0.65625 0.448865 1.09375
-0.65625 0.448849 1.15625
-0.65625 0.448835 1.21875
-0.65625 0.49578 1.96875
-0.65625 0.45622 2.03125
-0.65625 0.448571 2.21875
-0.65625 0.448547 2.28125
-0.65625 0.469817 2.53125
-0.65625 0.448473 2.59375
-0.65625 0.448456 2.65625
-0.65625 0.448432 2.71875
-0.65625 0.462578 3.03125
-0.65625 0.448668 3.09375
-0.65625 0.464 3.53125
-0.65625 0.448132 3.90625
-0.625 0.448904 0.875
-0.59375 0.455374 0.84375
-0.59375 0.45031 0.90625
-0.59375 0.448895 0.96875
-0.59375 0.448876 1.03125
-0.59375 0.44886 1.09375
-0.59375 0.448844 1.15625
-0.59375 0.448934 1.21875
-0.59375 0.496034 1.46875
-0.59375 0.461869 1.53125
-0.59375 0.45765 1.59375
-0.59375 0.485489 1.96875
-0.59375 0.453493 2.03125
-0.59375 0.448596 2.09375
-0.59375 0.448587 2.15625
-0.59375 0.448547 2.28125
-0.59375 0.448533 2.34375
-0.59375 0.451007 2.53125
-0.59375 0.448441 2.71875
-0.59375 0.448423 2.78125
-0.59375 0.4484 2.84375
-0.59375 0.448338 3.09375
-0.59375 0.456481 3.15625
-0.59375 0.448298 3.21875
-0.59375 0.44828 3.28125
-0.59375 0.450428 3.34375
-0.59375 0.448174 3.71875
-0.59375 0.452003 4.15625
-0.5625 0.44884 1.1875
-0.5625 0.448671 1.8125
-0.5625 0.451627 3.0625
-0.5625 0.458515 3.3125
-0.5625 0.448205 3.5625
-0.5625 0.448139 3.8125
-0.5625 0.450011 4.3125
-0.5625 0.456422 4.6875
-0.5625 0.534302 5.4375
-0.5625 0.49729 7.0625
-0.53125 0.449397 0.90625
-0.53125 0.448889 0.96875
-0.53125 0.448875 1.03125
-0.53125 0.448858 1.09375
-0.53125 0.448841 1.15625
-0.53125 0.448829 1.21875
-0.53125 0.485683 1.46875
-0.53125 0.455025 1.53125
-0.53125 0.451058 1.59375
-0.53125 0.451774 1.65625
-0.53125 0.454515 1.71875
-0.53125 0.449326 1.78125
-0.53125 0.47819 1.96875
-0.53125 0.454735 2.03125
-0.53125 0.448604 2.09375
-0.53125 0.448581 2.15625
-0.53125 0.448566 2.21875
-0.53125 0.448551 2.28125
-0.53125 0.448527 2.34375
-0.53125 0.465582 2.53125
-0.53125 0.448467 2.59375
-0.53125 0.448438 2.71875
-0.53125 0.44842 2.78125
-0.53125 0.448399 2.84375
-0.53125 0.490319 3.21875
-0.53125 0.497741 3.53125
-0.53125 0.44817 3.71875
-0.53125 0.448149 3.78125
-0.53125 0.448034 4.21875
-0.53125 0.448008 4.34375
-0.53125 0.512192 5.40625
-0.46875 0.455455 0.84375
-0.46875 0.450044 0.90625
-0.46875 0.448926 0.96875
-0.46875 0.448893 1.03125
-0.46875 0.448909 1.09375
-0.46875 0.448883 1.15625
-0.46875 0.449011 1.21875
-0.46875 0.534018 1.46875
-0.46875 0.44874 1.53125
-0.46875 0.448729 1.59375
-0.46875 0.448708 1.65625
-0.46875 0.448693 1.71875
-0.46875 0.448678 1.78125
-0.46875 0.479353 1.96875
-0.46875 0.454189 2.03125
-0.46875 0.448596 2.09375
-0.46875 0.448555 2.21875
-0.46875 0.448537 2.28125
-0.46875 0.448528 2.34375
-0.46875 0.463799 2.53125
-0.46875 0.448429 2.71875
-0.46875 0.448418 2.78125
-0.46875 0.448396 2.84375
-0.46875 0.48479 3.53125
-0.46875 0.448143 3.78125
-0.4375 0.44889 0.9375
-0.4375 0.448867 1.0625
-0.4375 0.448682 1.6875
-0.4375 0.489903 1.9375
-0.4375 0.448592 2.0625
-0.4375 0.448795 2.8125
-0.4375 0.484738 3.5625
-0.4375 0.448132 3.8125
-0.4375 0.449887 5.1875
-0.4375 0.534302 5.4375
-0.4375 0.497386 6.6875
-0.40625 0.458521 0.90625
-0.40625 0.469038 0.96875
-0.40625 0.475691 1.03125
-0.40625 0.491426 1.09375
-0.40625 0.509372 1.15625
-0.40625 0.508342 1.21875
-0.40625 0.60409 1.46875
-0.40625 0.448738 1.53125
-0.40625 0.448723 1.59375
-0.40625 0.4487 1.65625
-0.40625 0.448686 1.71875
-0.40625 0.448674 1.78125
-0.40625 0.471607 1.96875
-0.40625 0.459356 2.03125
-0.40625 0.448592 2.09375
-0.40625 0.448574 2.15625
-0.40625 0.448555 2.21875
-0.40625 0.448548 2.28125
-0.40625 0.448528 2.34375
-0.40625 0.464693 2.53125
-0.40625 0.449101 2.84375
-0.40625 0.529246 3.53125
-0.40625 0.448195 3.59375
-0.40625 0.44809 3.96875
-0.375 0.678539 1.375
-0.375 0.49716 7.625
-0.34375 0.577588 1.46875
-0.34375 0.448738 1.53125
-0.34375 0.448721 1.59375
-0.34375 0.448699 1.65625
-0.34375 0.448686 1.71875
-0.34375 0.448672 1.78125
-0.34375 0.479325 1.96875
-0.34375 0.451661 2.03125
-0.34375 0.448593 2.09375
-0.34375 0.448574 2.15625
-0.34375 0.448559 2.21875
-0.34375 0.448529 2.28125
-0.34375 0.448525 2.34375
-0.34375 0.461366 2.59375
-0.34375 0.465365 2.65625
-0.34375 0.499601 2.84375
-0.34375 0.494523 2.90625
-0.34375 0.523244 3.09375
-0.34375 0.456239 3.34375
-0.34375 0.448113 3.90625
-0.34375 0.466593 4.65625
-0.34375 0.447761 5.28125
-0.3125 0.678539 1.4375
-0.3125 0.448526 2.3125
-0.3125 0.470178 2.5625
-0.3125 0.521662 3.0625
-0.3125 0.448267 3.3125
-0.3125 0.510224 4.6875
-0.3125 0.497238 7.1875
-0.28125 0.568727 1.46875
-0.28125 0.448728 1.53125
-0.28125 0.448718 1.59375
-0.28125 0.448699 1.65625
-0.28125 0.448658 1.78125
-0.28125 0.485177 1.96875
-0.28125 0.457377 2.03125
-0.28125 0.448585 2.09375
-0.28125 0.448572 2.15625
-0.28125 0.448525 2.28125
-0.28125 0.540018 3.09375
-0.28125 0.449287 3.34375
-0.28125 0.45183 3.59375
-0.28125 0.448169 3.65625
-0.28125 0.475725 4.65625
-0.28125 0.447755 5.28125
-0.25 0.678539 1.25
-0.25 0.510224 4.75
-0.21875 0.516993 1.46875
-0.21875 0.448725 1.53125
-0.21875 0.44871 1.59375
-0.21875 0.448693 1.65625
-0.21875 0.448676 1.71875
-0.21875 0.448664 1.78125
-0.21875 0.477572 1.96875
-0.21875 0.448596 2.03125
-0.21875 0.448582 2.09375
-0.21875 0.448508 2.34375
-0.21875 0.465446 2.53125
-0.21875 0.455273 2.59375
-0.21875 0.465147 3.09375
-0.21875 0.448273 3.28125
-0.21875 0.453645 3.59375
-0.21875 0.448151 3.71875
-0.21875 0.452583 4.28125
-0.21875 0.460913 4.65625
-0.21875 0.497521 6.15625
-0.1875 0.453519 0.9375
-0.1875 0.457389 1.0625
-0.1875 0.452728 1.3125
-0.1875 0.448658 1.8125
-0.1875 0.449685 2.0625
-0.1875 0.469092 3.0625
-0.1875 0.44825 3.3125
-0.1875 0.453641 3.5625
-0.1875 0.447807 5.0625
-0.1875 0.497192 7.4375
-0.15625 0.46101 0.90625
-0.15625 0.457826 0.96875
-0.15625 0.459491 1.03125
-0.15625 0.458406 1.09375
-0.15625 0.465187 1.15625
-0.15625 0.458652 1.21875
-0.15625 0.457899 1.28125
-0.15625 0.471012 1.46875
-0.15625 0.448723 1.53125
-0.15625 0.448703 1.59375
-0.15625 0.448689 1.65625
-0.15625 0.448673 1.71875
-0.15625 0.448657 1.78125
-0.15625 0.47075 1.96875
-0.15625 0.460835 2.03125
-0.15625 0.453469 2.21875
-0.15625 0.452316 2.28125
-0.15625 0.449482 2.78125
-0.15625 0.448373 2.84375
-0.15625 0.46141 3.09375
-0.15625 0.448182 3.59375
-0.15625 0.448088 3.96875
-0.15625 0.450212 4.15625
-0.125 0.497295 6.875
-0.09375 0.455662 0.84375
-0.09375 0.451544 0.90625
-0.09375 0.449476 0.96875
-0.09375 0.449824 1.03125
-0.09375 0.449373 1.09375
-0.09375 0.449896 1.15625
-0.09375 0.449767 1.21875
-0.09375 0.450158 1.28125
-0.09375 0.451079 1.34375
-0.09375 0.467053 1.46875
-0.09375 0.448717 1.53125
-0.09375 0.448701 1.59375
-0.09375 0.448686 1.65625
-0.09375 0.448669 1.71875
-0.09375 0.448657 1.78125
-0.09375 0.476044 2.03125
-0.09375 0.470078 2.09375
-0.09375 0.465455 2.15625
-0.09375 0.469222 2.21875
-0.09375 0.477626 2.28125
-0.09375 0.461488 2.34375
-0.09375 0.508523 2.53125
-0.09375 0.448402 2.71875
-0.09375 0.448383 2.78125
-0.09375 0.448273 3.21875
-0.09375 0.448259 3.28125
-0.09375 0.44823 3.40625
-0.09375 0.465825 3.71875
-0.09375 0.454755 4.15625
-0.09375 0.447945 4.46875
-0.09375 0.447803 5.03125
-0.0625 0.448695 1.5625
-0.0625 0.480918 2.3125
-0.0625 0.618865 2.5625
-0.0625 0.448383 2.8125
-0.0625 0.460984 3.9375
-0.0625 0.4813 4.1875
-0.0625 0.447976 4.3125
-0.0625 0.455496 4.6875
-0.0625 0.447838 4.9375
-0.0625 0.497486 6.1875
-0.0625 0.497295 6.9375
-0.0625 0.497061 7.8125
-0.03125 0.454714 0.84375
-0.03125 0.449554 0.90625
-0.03125 0.448866 0.96875
-0.03125 0.448851 1.03125
-0.03125 0.448832 1.09375
-0.03125 0.448816 1.15625
-0.03125 0.448799 1.21875
-0.03125 0.448783 1.28125
-0.03125 0.44981 1.34375
-0.03125 0.466586 1.46875
-0.03125 0.448715 1.53125
-0.03125 0.448698 1.59375
-0.03125 0.448679 1.65625
-0.03125 0.448667 1.71875
-0.03125 0.44865 1.78125
-0.03125 0.528254 2.53125
-0.03125 0.448748 2.59375
-0.03125 0.448408 2.71875
-0.03125 0.448391 2.78125
-0.03125 0.448365 2.84375
-0.03125 0.457069 3.09375
-0.03125 0.448293 3.15625
-0.03125 0.448242 3.34375
-0.03125 0.448226 3.40625
-0.03125 0.520677 4.15625
-0.03125 0.497296 6.96875
0.03125 0.454688 0.84375
0.03125 0.449585 0.90625
0.03125 0.448861 0.96875
0.03125 0.448844 1.03125
0.03125 0.44883 1.09375
0.03125 0.448812 1.15625
0.03125 0.44879 1.21875
0.03125 0.448781 1.28125
0.03125 0.449812 1.34375
0.03125 0.47112 1.46875
0.03125 0.44871 1.53125
0.03125 0.448693 1.59375
0.03125 0.448676 1.65625
0.03125 0.448662 1.71875
0.03125 0.448641 1.78125
0.03125 0.475879 1.96875
0.03125 0.464936 2.03125
0.03125 0.468781 2.09375
0.03125 0.467928 2.15625
0.03125 0.459479 2.28125
0.03125 0.499774 2.53125
0.03125 0.448435 2.59375
0.03125 0.448413 2.65625
0.03125 0.454147 3.09375
0.03125 0.44826 3.21875
0.03125 0.448238 3.34375
0.03125 0.498172 4.15625
0.0625 0.448695 1.5625
0.0625 0.493381 1.9375
0.0625 0.481016 2.3125
0.0625 0.461725 2.5625
0.0625 0.448273 3.1875
0.0625 0.448212 3.4375
0.0625 0.450097 4.1875
0.0625 0.44783 4.9375
0.0625 0.497221 7.1875
0.09375 0.454348 0.84375
0.09375 0.449909 0.90625
0.09375 0.448857 0.96875
0.09375 0.448838 1.03125
0.09375 0.448824 1.09375
0.09375 0.448811 1.15625
0.09375 0.448796 1.21875
0.09375 0.448777 1.28125
0.09375 0.449817 1.34375
0.09375 0.470836 1.46875
0.09375 0.448708 1.53125
0.09375 0.448692 1.59375
0.09375 0.448677 1.65625
0.09375 0.448658 1.71875
0.09375 0.448643 1.78125
0.09375 0.468486 1.96875
0.09375 0.449768 2.03125
0.09375 0.44879 2.15625
0.09375 0.448436 2.59375
0.09375 0.448422 2.65625
0.09375 0.448405 2.71875
0.09375 0.44825 3.28125
0.09375 0.506626 4.15625
0.09375 0.447949 4.40625
0.125 0.504818 5.375
0.125 0.497287 6.875
0.125 0.497221 7.125
0.15625 0.454651 0.84375
0.15625 0.450115 0.90625
0.15625 0.448856 0.96875
0.15625 0.448837 1.03125
0.15625 0.448823 1.09375
0.15625 0.448808 1.15625
0.15625 0.448791 1.21875
0.15625 0.448777 1.28125
0.15625 0.449819 1.34375
0.15625 0.465177 1.46875
0.15625 0.448705 1.53125
0.15625 0.448686 1.59375
0.15625 0.448671 1.65625
0.15625 0.448658 1.71875
0.15625 0.448636 1.78125
0.15625 0.472218 1.96875
0.15625 0.448522 2.21875
0.15625 0.448515 2.28125
0.15625 0.448505 2.34375
0.15625 0.459344 2.53125
0.15625 0.448396 2.71875
0.15625 0.448377 2.78125
0.15625 0.463885 3.09375
0.15625 0.449035 4.96875
0.1875 0.448858 0.9375
0.1875 0.448788 1.1875
0.1875 0.448714 1.4375
0.1875 0.448548 2.1875
0.1875 0.448346 2.9375
0.1875 0.447979 4.3125
0.1875 0.504818 5.4375
0.1875 0.497602 5.8125
0.1875 0.497416 6.4375
0.21875 0.454645 0.84375
0.21875 0.450232 0.90625
0.21875 0.448852 0.96875
0.21875 0.448834 1.03125
0.21875 0.448818 1.09375
0.21875 0.448806 1.15625
0.21875 0.448786 1.21875
0.21875 0.44882 1.28125
0.21875 0.449822 1.34375
0.21875 0.467156 1.46875
0.21875 0.44896 1.53125
0.21875 0.448683 1.59375
0.21875 0.449053 1.65625
0.21875 0.449156 1.71875
0.21875 0.448635 1.78125
0.21875 0.469119 1.96875
0.21875 0.448574 2.03125
0.21875 0.44856 2.09375
0.21875 0.448524 2.21875
0.21875 0.448514 2.28125
0.21875 0.453097 2.53125
0.21875 0.448412 2.65625
0.21875 0.448354 2.84375
0.21875 0.448347 2.90625
0.21875 0.519557 5.40625
0.25 0.448858 0.75
0.28125 0.455269 0.84375
0.28125 0.449593 0.90625
0.28125 0.448847 0.96875
0.28125 0.448831 1.03125
0.28125 0.448815 1.09375
0.28125 0.448799 1.15625
0.28125 0.448784 1.21875
0.28125 0.448766 1.28125
0.28125 0.48112 1.46875
0.28125 0.457143 1.53125
0.28125 0.461485 1.59375
0.28125 0.454904 1.71875
0.28125 0.45052 1.78125
0.28125 0.470522 1.96875
0.28125 0.449363 2.03125
0.28125 0.448539 2.15625
0.28125 0.448521 2.21875
0.28125 0.448501 2.28125
0.28125 0.463659 2.53125
0.28125 0.448403 2.65625
0.28125 0.448389 2.71875
0.28125 0.448364 2.78125
0.28125 0.448787 3.40625
0.28125 0.481343 4.15625
0.28125 0.512187 5.40625
0.3125 0.448823 1.0625
0.3125 0.448773 1.3125
0.3125 0.470629 1.9375
0.3125 0.469159 3.0625
0.3125 0.44857 3.3125
0.3125 0.45481 3.8125
0.3125 0.447968 4.3125
0.3125 0.475593 4.9375
0.3125 0.519557 5.4375
0.34375 0.449671 0.90625
0.34375 0.448843 0.96875
0.34375 0.448827 1.03125
0.34375 0.448811 1.09375
0.34375 0.448796 1.15625
0.34375 0.448778 1.21875
0.34375 0.448812 1.28125
0.34375 0.489807 1.96875
0.34375 0.449162 2.03125
0.34375 0.448542 2.15625
0.34375 0.467176 2.53125
0.34375 0.448773 2.59375
0.34375 0.448407 2.65625
0.34375 0.448395 2.71875
0.34375 0.448369 2.78125
0.34375 0.467598 3.09375
0.34375 0.45217 3.21875
0.34375 0.497309 6.84375
0.40625 0.454273 0.84375
0.40625 0.449914 0.90625
0.40625 0.448841 0.96875
0.40625 0.448824 1.03125
0.40625 0.448808 1.09375
0.40625 0.448795 1.15625
0.40625 0.448774 1.21875
0.40625 0.448784 1.28125
0.40625 0.492013 1.53125
0.40625 0.500242 1.59375
0.40625 0.478326 1.65625
0.40625 0.501224 1.71875
0.40625 0.526964 1.78125
0.40625 0.567058 1.84375
0.40625 0.526555 1.96875
0.40625 0.450927 2.03125
0.40625 0.448548 2.09375
0.40625 0.448526 2.15625
0.40625 0.448504 2.21875
0.40625 0.449168 2.34375
0.40625 0.468236 2.53125
0.40625 0.448399 2.65625
0.40625 0.481867 3.59375
0.40625 0.448086 3.84375
0.4375 0.448843 0.9375
0.4375 0.456208 1.5625
0.4375 0.448553 2.0625
0.4375 0.448491 2.3125
0.4375 0.458768 2.5625
0.4375 0.448363 2.8125
0.4375 0.499821 3.5625
0.4375 0.450131 4.1875
0.4375 0.462656 4.6875
0.4375 0.497457 6.1875
0.4375 0.497373 6.5625
0.4375 0.497308 6.8125
0.4375 0.497236 7.0625
0.46875 0.455219 0.84375
0.46875 0.449475 0.90625
0.46875 0.448836 0.96875
0.46875 0.44882 1.03125
0.46875 0.448805 1.09375
0.46875 0.448789 1.15625
0.46875 0.448773 1.21875
0.46875 0.448798 1.28125
0.46875 0.488091 1.46875
0.46875 0.461544 1.53125
0.46875 0.448674 1.59375
0.46875 0.450081 1.65625
0.46875 0.451417 1.78125
0.46875 0.45095 1.84375
0.46875 0.533149 1.96875
0.46875 0.448988 2.03125
0.46875 0.448542 2.09375
0.46875 0.448532 2.15625
0.46875 0.448514 2.21875
0.46875 0.448487 2.28125
0.46875 0.44918 2.34375
0.46875 0.463309 2.53125
0.46875 0.448387 2.71875
0.46875 0.448361 2.78125
0.46875 0.448341 2.84375
0.46875 0.532648 3.59375
0.46875 0.454893 3.65625
0.46875 0.448116 3.71875
0.53125 0.455068 0.84375
0.53125 0.449798 0.90625
0.53125 0.448835 0.96875
0.53125 0.448819 1.03125
0.53125 0.448802 1.09375
0.53125 0.448785 1.15625
0.53125 0.448772 1.21875
0.53125 0.448755 1.28125
0.53125 0.44984 1.34375
0.53125 0.48603 1.46875
0.53125 0.452829 1.53125
0.53125 0.448655 1.65625
0.53125 0.448641 1.71875
0.53125 0.448617 1.78125
0.53125 0.448603 1.84375
0.53125 0.463199 1.96875
0.53125 0.448553 2.03125
0.53125 0.448531 2.09375
0.53125 0.448495 2.21875
0.53125 0.448474 2.34375
0.53125 0.465888 2.53125
0.53125 0.448413 2.59375
0.53125 0.448391 2.65625
0.53125 0.448353 2.78125
0.53125 0.449373 3.28125
0.53125 0.466141 3.40625
0.53125 0.514714 3.59375
0.5625 0.448842 0.9375
0.5625 0.471718 1.4375
0.5625 0.450049 1.5625
0.5625 0.468614 3.0625
0.5625 0.448107 3.6875
0.5625 0.450138 4.1875
0.5625 0.451748 4.6875
0.59375 0.454541 0.84375
0.59375 0.449387 0.90625
0.59375 0.44883 0.96875
0.59375 0.448815 1.03125
0.59375 0.448798 1.09375
0.59375 0.448784 1.15625
0.59375 0.44877 1.21875
0.59375 0.448751 1.28125
0.59375 0.449842 1.34375
0.59375 0.486345 1.46875
0.59375 0.451836 1.53125
0.59375 0.44867 1.59375
0.59375 0.448633 1.71875
0.59375 0.448619 1.78125
0.59375 0.448606 1.84375
0.59375 0.468443 1.96875
0.59375 0.448555 2.03125
0.59375 0.448531 2.09375
0.59375 0.448516 2.15625
0.59375 0.448503 2.21875
0.59375 0.453152 2.53125
0.59375 0.448382 2.71875
0.59375 0.448343 2.84375
0.59375 0.462224 3.09375
0.59375 0.448244 3.21875
0.59375 0.448206 3.34375
0.59375 0.448186 3.40625
0.59375 0.465954 3.59375
0.59375 0.44812 3.65625
0.59375 0.448076 3.84375
0.65625 0.448842 0.90625
0.65625 0.448826 0.96875
0.65625 0.448814 1.03125
0.65625 0.448796 1.09375
0.65625 0.448781 1.15625
0.65625 0.448763 1.21875
0.65625 0.448766 1.28125
0.65625 0.449846 1.34375
0.65625 0.491567 1.46875
0.65625 0.45307 1.53125
0.65625 0.44867 1.59375
0.65625 0.448628 1.71875
0.65625 0.448618 1.78125
0.65625 0.465572 1.96875
0.65625 0.449721 2.03125
0.65625 0.448536 2.09375
0.65625 0.448519 2.15625
0.65625 0.461835 2.53125
0.65625 0.448257 3.15625
0.65625 0.448219 3.28125
0.65625 0.448095 3.78125
0.6875 0.44876 1.1875
0.6875 0.452649 1.9375
0.6875 0.448526 2.0625
0.6875 0.448479 2.3125
0.6875 0.481758 2.5625
0.6875 0.460455 2.8125
0.6875 0.448204 3.3125
0.6875 0.448061 3.9375
0.6875 0.447921 4.4375
0.6875 0.447783 4.9375
0.6875 0.447728 5.1875
0.71875 0.448806 1.03125
0.71875 0.44879 1.09375
0.71875 0.448778 1.15625
0.71875 0.448758 1.21875
0.71875 0.448744 1.28125
0.71875 0.449849 1.34375
0.71875 0.487322 1.46875
0.71875 0.455296 1.53125
0.71875 0.44866 1.59375
0.71875 0.448646 1.65625
0.71875 0.44863 1.71875
0.71875 0.448607 1.78125
0.71875 0.448596 1.84375
0.71875 0.458327 1.96875
0.71875 0.448543 2.03125
0.71875 0.448536 2.09375
0.71875 0.448505 2.15625
0.71875 0.448498 2.21875
0.71875 0.464978 2.53125
0.71875 0.452497 2.78125
0.71875 0.454287 2.84375
0.71875 0.453723 3.09375
0.71875 0.44909 3.65625
0.71875 0.447723 5.15625
0.75 0.447921 4.25
0.78125 0.448771 1.15625
0.78125 0.448759 1.21875
0.78125 0.448776 1.28125
0.78125 0.495122 1.46875
0.78125 0.45578 1.53125
0.78125 0.448655 1.59375
0.78125 0.448643 1.65625
0.78125 0.448625 1.71875
0.78125 0.4486 1.78125
0.78125 0.464555 1.96875
0.78125 0.449706 2.03125
0.78125 0.448524 2.09375
0.78125 0.448503 2.15625
0.78125 0.44849 2.21875
0.78125 0.448473 2.28125
0.78125 0.449251 2.34375
0.78125 0.457476 3.09375
0.78125 0.448194 3.34375
0.78125 0.448177 3.40625
0.78125 0.448057 3.90625
0.8125 0.44876 1.1875
0.8125 0.448733 1.3125
0.8125 0.448658 1.5625
0.8125 0.448579 1.8125
0.8125 0.452163 2.0625
0.8125 0.448462 2.3125
0.8125 0.448223 3.1875
0.8125 0.448202 3.3125
0.8125 0.459929 4.1875
0.8125 0.451729 4.6875
0.8125 0.44774 5.0625
0.84375 0.448765 1.15625
0.84375 0.449348 1.21875
0.84375 0.450122 1.28125
0.84375 0.485812 1.46875
0.84375 0.451621 1.53125
0.84375 0.448655 1.59375
0.84375 0.448639 1.65625
0.84375 0.448616 1.71875
0.84375 0.448587 1.84375
0.84375 0.468087 1.96875
0.84375 0.452757 2.03125
0.84375 0.44858 2.09375
0.84375 0.450863 2.15625
0.84375 0.448854 2.28125
0.84375 0.487217 3.09375
0.84375 0.448244 3.15625
0.84375 0.448199 3.28125
0.84375 0.44819 3.34375
0.84375 0.448162 3.46875
0.84375 0.459878 4.15625
0.84375 0.451726 4.71875
0.84375 0.447714 5.15625
0.90625 0.489018 1.46875
0.90625 0.463521 1.53125
0.90625 0.449708 1.59375
0.90625 0.448892 1.71875
0.90625 0.526889 2.84375
0.90625 0.511786 2.96875
0.90625 0.52411 3.03125
0.90625 0.49615 3.09375
0.90625 0.448369 3.65625
0.90625 0.455152 4.15625
0.90625 0.4547 4.21875
0.9375 0.52432 2.8125
0.9375 0.471083 3.6875
0.9375 0.448974 3.9375
0.96875 0.462359 3.65625
