VERSION
FIELDS x y z
SIZE 4 4 4
TYPE F F F
COUNT 1 1 1
WIDTH 1
HEIGHT 1613
VIEWPOINT 0 0 0 1 0 0 0
POINTS 1613
DATA ascii
-1.0625 0.448774 1.5625
-1.0625 0.45041 3.8125
-1.04688 0.448774 1.51562
-1.04688 0.448763 1.57812
-1.04688 0.448755 1.60938
-1.04688 0.448747 1.64062
-1.04688 0.448734 1.67188
-1.04688 0.448724 1.70312
-1.04688 0.44872 1.73438
-1.04688 0.502423 2.01562
-1.04688 0.450868 2.07812
-1.03125 0.448774 1.53125
-1.03125 0.448729 1.65625
-1.03125 0.448712 1.78125
-1.03125 0.479436 1.96875
-1.03125 0.449759 2.09375
-1.03125 0.456983 2.34375
-1.01562 0.448773 1.51562
-1.01562 0.448757 1.57812
-1.01562 0.448741 1.64062
-1.01562 0.5011 1.98438
-1.01562 0.459844 2.01562
-1.01562 0.449003 2.04688
-1.01562 0.448688 2.10938
-0.984375 0.461375 1.39062
-0.984375 0.45158 1.42188
-0.984375 0.448789 1.45312
-0.984375 0.448748 1.60938
-0.984375 0.448737 1.64062
-0.984375 0.484599 1.98438
-0.984375 0.460909 2.01562
-0.984375 0.448597 2.17188
-0.984375 0.448581 2.23438
-0.96875 0.474248 1.40625
-0.96875 0.448713 1.71875
-0.96875 0.448614 2.09375
-0.96875 0.448585 2.21875
-0.96875 0.448573 2.28125
-0.96875 0.481653 2.53125
-0.96875 0.462218 3.03125
-0.96875 0.448299 3.28125
-0.953125 0.479302 1.39062
-0.953125 0.456385 1.42188
-0.953125 0.448781 1.48438
-0.953125 0.448772 1.51562
-0.953125 0.44876 1.54688
-0.953125 0.448736 1.64062
-0.953125 0.448715 1.73438
-0.953125 0.478479 1.98438
-0.953125 0.454287 2.01562
-0.953125 0.448629 2.04688
-0.953125 0.448588 2.20312
-0.921875 0.48606 1.39062
-0.921875 0.454117 1.42188
-0.921875 0.448784 1.45312
-0.921875 0.448777 1.48438
-0.921875 0.448766 1.51562
-0.921875 0.44874 1.64062
-0.921875 0.448729 1.67188
-0.921875 0.448718 1.70312
-0.921875 0.451489 2.01562
-0.921875 0.448582 2.23438
-0.921875 0.471542 2.54688
-0.921875 0.448171 3.79688
-0.90625 0.448758 1.53125
-0.90625 0.469111 1.96875
-0.90625 0.448469 2.65625
-0.90625 0.448342 3.15625
-0.90625 0.453561 3.59375
-0.90625 0.448192 3.71875
-0.90625 0.44817 3.78125
-0.90625 0.448147 3.90625
-0.90625 0.451393 4.71875
-0.890625 0.483857 1.39062
-0.890625 0.454653 1.42188
-0.890625 0.448786 1.45312
-0.890625 0.448767 1.51562
-0.890625 0.448761 1.54688
-0.890625 0.448742 1.60938
-0.890625 0.448731 1.64062
-0.890625 0.448723 1.67188
-0.890625 0.44872 1.70312
-0.890625 0.47427 1.98438
-0.890625 0.456926 2.01562
-0.890625 0.470299 2.54688
-0.890625 0.453563 3.57812
-0.859375 0.489509 1.39062
-0.859375 0.451868 1.42188
-0.859375 0.448774 1.48438
-0.859375 0.448766 1.51562
-0.859375 0.44874 1.60938
-0.859375 0.467858 1.98438
-0.859375 0.455561 2.01562
-0.859375 0.448624 2.04688
-0.859375 0.448616 2.07812
-0.859375 0.474775 2.54688
-0.859375 0.448471 2.64062
-0.859375 0.448157 3.85938
-0.84375 0.448722 1.65625
-0.84375 0.448488 2.59375
-0.84375 0.448471 2.65625
-0.84375 0.461814 3.53125
-0.84375 0.448156 3.84375
-0.828125 0.448842 1.20312
-0.828125 0.483599 1.39062
-0.828125 0.449318 1.42188
-0.828125 0.448781 1.45312
-0.828125 0.448773 1.48438
-0.828125 0.448766 1.51562
-0.828125 0.448758 1.54688
-0.828125 0.448738 1.60938
-0.828125 0.448723 1.67188
-0.828125 0.448711 1.73438
-0.828125 0.482254 1.98438
-0.828125 0.455337 2.01562
-0.828125 0.448618 2.07812
-0.828125 0.448604 2.10938
-0.828125 0.452214 2.54688
-0.828125 0.448462 2.67188
-0.796875 0.44886 1.14062
-0.796875 0.448851 1.17188
-0.796875 0.448844 1.20312
-0.796875 0.449743 1.23438
-0.796875 0.484624 1.39062
-0.796875 0.454728 1.42188
-0.796875 0.448779 1.45312
-0.796875 0.448759 1.51562
-0.796875 0.448754 1.54688
-0.796875 0.448726 1.64062
-0.796875 0.448721 1.67188
-0.796875 0.448716 1.70312
-0.796875 0.503557 1.98438
-0.796875 0.448606 2.10938
-0.78125 0.448861 1.09375
-0.78125 0.448856 1.15625
-0.78125 0.448766 1.46875
-0.78125 0.448761 1.53125
-0.78125 0.522556 1.96875
-0.78125 0.455351 2.03125
-0.78125 0.448586 2.15625
-0.78125 0.448556 2.28125
-0.78125 0.465969 3.03125
-0.78125 0.447898 4.78125
-0.78125 0.447838 5.03125
-0.765625 0.448869 1.07812
-0.765625 0.448861 1.10938
-0.765625 0.448857 1.14062
-0.765625 0.44885 1.17188
-0.765625 0.44884 1.20312
-0.765625 0.449744 1.23438
-0.765625 0.477503 1.39062
-0.765625 0.452624 1.42188
-0.765625 0.448776 1.45312
-0.765625 0.448757 1.51562
-0.765625 0.448723 1.67188
-0.765625 0.530976 1.98438
-0.765625 0.448609 2.07812
-0.765625 0.448602 2.10938
-0.765625 0.448598 2.14062
-0.765625 0.481531 2.54688
-0.765625 0.448482 2.57812
-0.765625 0.448464 2.64062
-0.734375 0.448877 1.04688
-0.734375 0.44887 1.07812
-0.734375 0.44886 1.10938
-0.734375 0.448858 1.14062
-0.734375 0.448846 1.17188
-0.734375 0.448842 1.20312
-0.734375 0.476145 1.39062
-0.734375 0.453503 1.42188
-0.734375 0.450515 1.45312
-0.734375 0.44876 1.51562
-0.734375 0.448749 1.54688
-0.734375 0.449892 1.57812
-0.734375 0.449003 1.60938
-0.734375 0.449302 1.64062
-0.734375 0.449613 1.67188
-0.734375 0.449129 1.70312
-0.734375 0.549696 1.98438
-0.734375 0.44862 2.04688
-0.734375 0.448614 2.07812
-0.734375 0.448604 2.10938
-0.734375 0.448585 2.17188
-0.71875 0.448834 1.21875
-0.71875 0.490798 1.40625
-0.71875 0.449747 1.53125
-0.71875 0.456183 1.71875
-0.71875 0.506253 1.96875
-0.71875 0.457444 2.03125
-0.71875 0.448596 2.15625
-0.71875 0.448557 2.28125
-0.71875 0.448466 2.65625
-0.71875 0.448161 3.78125
-0.703125 0.448885 1.01562
-0.703125 0.448878 1.04688
-0.703125 0.448873 1.07812
-0.703125 0.448863 1.10938
-0.703125 0.448853 1.14062
-0.703125 0.448845 1.17188
-0.703125 0.44884 1.20312
-0.703125 0.448833 1.23438
-0.703125 0.491305 1.39062
-0.703125 0.496714 1.42188
-0.703125 0.492711 1.45312
-0.703125 0.474729 1.48438
-0.703125 0.499367 1.51562
-0.703125 0.534437 1.57812
-0.703125 0.508029 1.60938
-0.703125 0.520423 1.64062
-0.703125 0.505393 1.67188
-0.703125 0.546211 1.70312
-0.703125 0.583993 1.73438
-0.703125 0.512609 1.98438
-0.703125 0.45366 2.01562
-0.703125 0.448609 2.07812
-0.703125 0.448591 2.14062
-0.703125 0.44855 2.29688
-0.703125 0.45347 2.54688
-0.703125 0.448148 3.85938
-0.6875 0.451993 4.1875
-0.671875 0.448898 0.953125
-0.671875 0.448891 0.984375
-0.671875 0.448881 1.01562
-0.671875 0.448875 1.04688
-0.671875 0.448869 1.07812
-0.671875 0.44886 1.10938
-0.671875 0.448848 1.14062
-0.671875 0.448842 1.17188
-0.671875 0.448834 1.20312
-0.671875 0.448832 1.23438
-0.671875 0.493751 1.98438
-0.671875 0.464239 2.01562
-0.671875 0.448579 2.20312
-0.671875 0.474815 2.54688
-0.671875 0.448416 2.79688
-0.65625 0.448889 0.96875
-0.65625 0.448862 1.09375
-0.65625 0.465218 2.53125
-0.65625 0.448428 2.78125
-0.65625 0.462272 3.03125
-0.65625 0.448272 3.34375
-0.65625 0.449989 3.59375
-0.640625 0.448905 0.921875
-0.640625 0.448901 0.953125
-0.640625 0.448892 0.984375
-0.640625 0.448885 1.01562
-0.640625 0.448874 1.04688
-0.640625 0.448866 1.07812
-0.640625 0.44886 1.10938
-0.640625 0.448852 1.14062
-0.640625 0.448842 1.17188
-0.640625 0.448835 1.20312
-0.640625 0.44883 1.23438
-0.640625 0.480351 1.98438
-0.640625 0.458251 2.01562
-0.640625 0.448595 2.10938
-0.640625 0.448573 2.20312
-0.640625 0.448565 2.23438
-0.640625 0.44856 2.26562
-0.640625 0.481558 2.54688
-0.640625 0.448207 3.60938
-0.609375 0.450055 0.890625
-0.609375 0.448906 0.921875
-0.609375 0.448896 0.953125
-0.609375 0.448888 0.984375
-0.609375 0.44888 1.01562
-0.609375 0.448874 1.04688
-0.609375 0.448859 1.10938
-0.609375 0.44885 1.14062
-0.609375 0.448842 1.17188
-0.609375 0.448835 1.20312
-0.609375 0.474061 1.98438
-0.609375 0.455624 2.01562
-0.609375 0.448605 2.07812
-0.609375 0.448598 2.10938
-0.609375 0.448591 2.14062
-0.609375 0.448576 2.20312
-0.609375 0.44855 2.29688
-0.609375 0.455093 3.04688
-0.59375 0.448891 0.96875
-0.59375 0.448866 1.09375
-0.59375 0.448531 2.34375
-0.59375 0.456307 2.53125
-0.59375 0.448458 2.65625
-0.59375 0.453867 3.09375
-0.59375 0.44829 3.28125
-0.59375 0.448183 3.65625
-0.59375 0.447846 4.96875
-0.578125 0.449678 0.890625
-0.578125 0.448904 0.921875
-0.578125 0.448896 0.953125
-0.578125 0.448888 0.984375
-0.578125 0.448882 1.01562
-0.578125 0.448872 1.04688
-0.578125 0.448864 1.07812
-0.578125 0.448856 1.10938
-0.578125 0.448847 1.14062
-0.578125 0.448833 1.20312
-0.578125 0.448829 1.23438
-0.578125 0.518843 1.45312
-0.578125 0.487228 1.98438
-0.578125 0.453215 2.01562
-0.578125 0.44859 2.14062
-0.578125 0.448549 2.29688
-0.578125 0.46538 2.54688
-0.578125 0.4709 3.04688
-0.578125 0.450649 3.07812
-0.578125 0.475251 3.54688
-0.5625 0.448891 0.9375
-0.5625 0.497593 5.9375
-0.546875 0.450595 0.890625
-0.546875 0.448902 0.921875
-0.546875 0.448895 0.953125
-0.546875 0.448886 0.984375
-0.546875 0.448877 1.01562
-0.546875 0.44887 1.04688
-0.546875 0.448862 1.07812
-0.546875 0.448855 1.10938
-0.546875 0.448847 1.14062
-0.546875 0.448839 1.17188
-0.546875 0.448833 1.20312
-0.546875 0.448831 1.23438
-0.546875 0.494091 1.45312
-0.546875 0.451918 1.57812
-0.546875 0.453558 1.60938
-0.546875 0.456138 1.64062
-0.546875 0.453311 1.67188
-0.546875 0.472886 1.98438
-0.546875 0.464219 2.01562
-0.546875 0.448592 2.10938
-0.546875 0.474845 2.54688
-0.546875 0.448439 2.70312
-0.546875 0.532959 3.54688
-0.53125 0.455829 0.84375
-0.53125 0.448833 1.21875
-0.53125 0.49638 1.46875
-0.53125 0.44972 1.53125
-0.53125 0.448711 1.65625
-0.53125 0.476583 1.96875
-0.53125 0.448605 2.09375
-0.53125 0.44858 2.15625
-0.53125 0.491166 3.15625
-0.53125 0.532959 3.53125
-0.53125 0.448101 3.96875
-0.515625 0.455118 0.859375
-0.515625 0.451971 0.890625
-0.515625 0.448903 0.921875
-0.515625 0.448882 0.984375
-0.515625 0.448876 1.01562
-0.515625 0.448867 1.04688
-0.515625 0.448861 1.07812
-0.515625 0.448855 1.10938
-0.515625 0.448846 1.14062
-0.515625 0.448836 1.17188
-0.515625 0.448829 1.20312
-0.515625 0.48292 1.45312
-0.515625 0.449071 1.51562
-0.515625 0.449057 1.54688
-0.515625 0.4496 1.60938
-0.515625 0.449383 1.67188
-0.515625 0.448688 1.73438
-0.515625 0.46903 1.98438
-0.515625 0.46421 2.01562
-0.515625 0.448593 2.10938
-0.515625 0.448579 2.17188
-0.515625 0.466612 2.54688
-0.515625 0.516083 3.54688
-0.484375 0.451702 0.890625
-0.484375 0.4489 0.921875
-0.484375 0.448891 0.953125
-0.484375 0.448883 0.984375
-0.484375 0.448874 1.01562
-0.484375 0.448868 1.04688
-0.484375 0.448857 1.07812
-0.484375 0.44885 1.10938
-0.484375 0.448842 1.14062
-0.484375 0.448836 1.17188
-0.484375 0.448829 1.20312
-0.484375 0.497813 1.45312
-0.484375 0.448735 1.54688
-0.484375 0.44873 1.57812
-0.484375 0.448715 1.64062
-0.484375 0.448703 1.67188
-0.484375 0.448681 1.76562
-0.484375 0.459751 2.01562
-0.484375 0.448598 2.07812
-0.484375 0.448569 2.20312
-0.484375 0.448529 2.32812
-0.484375 0.451026 2.54688
-0.484375 0.507494 3.54688
-0.484375 0.596946 5.42188
-0.46875 0.455113 0.84375
-0.46875 0.448888 0.96875
-0.46875 0.448872 1.03125
-0.46875 0.448829 1.21875
-0.46875 0.497367 1.46875
-0.46875 0.448682 1.78125
-0.46875 0.462221 2.53125
-0.46875 0.448445 2.65625
-0.46875 0.448096 3.96875
-0.46875 0.519562 5.40625
-0.46875 0.497209 7.40625
-0.453125 0.450515 0.890625
-0.453125 0.449008 0.921875
-0.453125 0.448961 0.953125
-0.453125 0.448881 0.984375
-0.453125 0.448938 1.01562
-0.453125 0.448863 1.04688
-0.453125 0.449121 1.07812
-0.453125 0.448912 1.10938
-0.453125 0.448956 1.17188
-0.453125 0.448826 1.20312
-0.453125 0.588106 1.45312
-0.453125 0.449585 1.48438
-0.453125 0.448742 1.51562
-0.453125 0.448734 1.54688
-0.453125 0.44873 1.57812
-0.453125 0.448717 1.60938
-0.453125 0.448714 1.64062
-0.453125 0.44867 1.79688
-0.453125 0.448608 2.04688
-0.453125 0.44859 2.10938
-0.453125 0.448563 2.20312
-0.453125 0.448521 2.35938
-0.453125 0.504039 3.54688
-0.4375 0.455282 2.0625
-0.421875 0.453026 0.890625
-0.421875 0.451213 0.921875
-0.421875 0.453527 0.953125
-0.421875 0.452202 0.984375
-0.421875 0.451284 1.01562
-0.421875 0.452664 1.04688
-0.421875 0.453142 1.07812
-0.421875 0.454378 1.10938
-0.421875 0.45523 1.14062
-0.421875 0.454909 1.17188
-0.421875 0.452297 1.20312
-0.421875 0.453174 1.23438
-0.421875 0.558728 1.45312
-0.421875 0.449073 1.48438
-0.421875 0.448744 1.51562
-0.421875 0.448732 1.54688
-0.421875 0.448704 1.67188
-0.421875 0.44869 1.70312
-0.421875 0.448673 1.76562
-0.421875 0.471491 1.98438
-0.421875 0.456498 2.01562
-0.421875 0.448596 2.07812
-0.421875 0.448588 2.10938
-0.421875 0.448534 2.29688
-0.40625 0.448734 1.53125
-0.40625 0.448708 1.65625
-0.40625 0.489897 1.96875
-0.40625 0.455282 2.03125
-0.40625 0.448557 2.21875
-0.40625 0.448527 2.34375
-0.40625 0.489577 3.53125
-0.40625 0.518221 4.65625
-0.40625 0.497532 6.15625
-0.390625 0.460408 0.890625
-0.390625 0.467151 0.921875
-0.390625 0.473378 0.953125
-0.390625 0.481991 0.984375
-0.390625 0.490639 1.01562
-0.390625 0.482491 1.04688
-0.390625 0.492615 1.07812
-0.390625 0.521433 1.10938
-0.390625 0.517375 1.14062
-0.390625 0.496081 1.17188
-0.390625 0.550654 1.20312
-0.390625 0.542765 1.23438
-0.390625 0.608493 1.45312
-0.390625 0.449627 1.48438
-0.390625 0.448738 1.51562
-0.390625 0.448723 1.57812
-0.390625 0.448703 1.64062
-0.390625 0.484471 1.98438
-0.390625 0.454697 2.01562
-0.390625 0.448605 2.04688
-0.390625 0.448579 2.14062
-0.390625 0.44855 2.23438
-0.390625 0.448519 2.35938
-0.390625 0.463309 2.54688
-0.390625 0.551553 3.54688
-0.390625 0.485786 4.67188
-0.359375 0.590769 1.45312
-0.359375 0.449388 1.48438
-0.359375 0.448735 1.51562
-0.359375 0.44873 1.54688
-0.359375 0.448723 1.57812
-0.359375 0.448715 1.60938
-0.359375 0.448702 1.64062
-0.359375 0.448681 1.73438
-0.359375 0.448671 1.76562
-0.359375 0.448667 1.79688
-0.359375 0.479178 1.98438
-0.359375 0.451409 2.01562
-0.359375 0.448592 2.07812
-0.359375 0.457794 2.70312
-0.359375 0.451542 2.76562
-0.34375 0.70022 1.46875
-0.34375 0.448721 1.59375
-0.34375 0.469004 1.96875
-0.34375 0.479422 2.53125
-0.34375 0.451282 2.71875
-0.34375 0.46711 2.78125
-0.34375 0.519253 2.90625
-0.34375 0.448173 3.65625
-0.328125 0.605472 1.45312
-0.328125 0.448735 1.51562
-0.328125 0.448726 1.54688
-0.328125 0.448711 1.60938
-0.328125 0.448693 1.67188
-0.328125 0.481802 1.98438
-0.328125 0.451405 2.01562
-0.328125 0.448601 2.04688
-0.328125 0.448591 2.07812
-0.328125 0.44858 2.10938
-0.328125 0.44856 2.20312
-0.328125 0.483015 2.73438
-0.328125 0.497694 2.85938
-0.328125 0.525149 3.10938
-0.3125 0.70022 1.4375
-0.296875 0.580366 1.45312
-0.296875 0.448732 1.51562
-0.296875 0.448708 1.60938
-0.296875 0.448671 1.76562
-0.296875 0.44866 1.79688
-0.296875 0.477603 1.98438
-0.296875 0.454948 2.01562
-0.296875 0.448566 2.17188
-0.296875 0.448557 2.20312
-0.296875 0.448545 2.23438
-0.296875 0.544764 3.07812
-0.296875 0.45783 3.10938
-0.28125 0.448677 1.71875
-0.28125 0.448668 1.78125
-0.28125 0.449696 2.03125
-0.28125 0.44856 2.15625
-0.28125 0.44852 2.34375
-0.28125 0.457649 3.09375
-0.28125 0.448268 3.28125
-0.28125 0.484866 4.65625
-0.28125 0.497498 6.21875
-0.265625 0.598439 1.45312
-0.265625 0.448732 1.51562
-0.265625 0.448723 1.54688
-0.265625 0.448717 1.57812
-0.265625 0.448707 1.60938
-0.265625 0.448682 1.70312
-0.265625 0.44866 1.79688
-0.265625 0.468982 1.98438
-0.265625 0.460784 2.01562
-0.265625 0.448576 2.10938
-0.265625 0.448552 2.20312
-0.265625 0.44852 2.32812
-0.265625 0.448511 2.35938
-0.265625 0.483397 3.07812
-0.265625 0.491203 4.67188
-0.234375 0.539007 1.45312
-0.234375 0.44875 1.48438
-0.234375 0.44873 1.51562
-0.234375 0.448721 1.54688
-0.234375 0.44871 1.60938
-0.234375 0.448695 1.64062
-0.234375 0.448657 1.79688
-0.234375 0.448661 2.01562
-0.234375 0.448586 2.07812
-0.234375 0.448578 2.10938
-0.234375 0.463311 2.57812
-0.234375 0.454109 3.10938
-0.21875 0.599723 1.46875
-0.21875 0.448703 1.59375
-0.21875 0.448688 1.65625
-0.21875 0.448662 1.78125
-0.21875 0.461177 2.53125
-0.21875 0.468581 2.65625
-0.21875 0.448186 3.59375
-0.21875 0.447813 5.03125
-0.203125 0.497544 1.45312
-0.203125 0.448736 1.48438
-0.203125 0.448732 1.51562
-0.203125 0.448705 1.60938
-0.203125 0.448698 1.64062
-0.203125 0.448688 1.67188
-0.203125 0.448668 1.73438
-0.203125 0.448662 1.76562
-0.203125 0.448596 2.04688
-0.203125 0.453649 2.67188
-0.203125 0.46908 3.07812
-0.1875 0.468581 2.6875
-0.171875 0.470008 0.890625
-0.171875 0.466487 0.921875
-0.171875 0.46408 0.953125
-0.171875 0.469067 1.04688
-0.171875 0.468123 1.07812
-0.171875 0.461837 1.14062
-0.171875 0.46328 1.17188
-0.171875 0.461365 1.20312
-0.171875 0.466499 1.26562
-0.171875 0.466374 1.29688
-0.171875 0.47678 1.45312
-0.171875 0.449369 1.48438
-0.171875 0.448716 1.54688
-0.171875 0.448708 1.57812
-0.171875 0.448698 1.64062
-0.171875 0.448677 1.70312
-0.171875 0.474203 1.98438
-0.171875 0.455474 2.01562
-0.171875 0.448516 2.32812
-0.171875 0.471133 3.07812
-0.15625 0.462242 0.96875
-0.15625 0.453011 1.09375
-0.15625 0.453354 1.15625
-0.15625 0.468958 1.28125
-0.15625 0.479225 1.96875
-0.15625 0.491671 2.03125
-0.15625 0.448568 2.15625
-0.15625 0.452057 2.28125
-0.15625 0.454119 3.09375
-0.15625 0.448225 3.46875
-0.15625 0.447999 4.28125
-0.15625 0.455499 4.65625
-0.15625 0.447831 4.96875
-0.15625 0.49723 7.21875
-0.140625 0.457692 0.890625
-0.140625 0.455627 0.921875
-0.140625 0.457283 0.953125
-0.140625 0.453582 0.984375
-0.140625 0.455478 1.01562
-0.140625 0.457163 1.04688
-0.140625 0.45767 1.07812
-0.140625 0.45633 1.10938
-0.140625 0.456025 1.14062
-0.140625 0.456793 1.17188
-0.140625 0.452554 1.20312
-0.140625 0.456034 1.23438
-0.140625 0.456843 1.26562
-0.140625 0.453408 1.29688
-0.140625 0.468611 1.45312
-0.140625 0.449943 1.48438
-0.140625 0.448722 1.51562
-0.140625 0.448687 1.67188
-0.140625 0.474767 2.01562
-0.140625 0.454927 2.04688
-0.140625 0.450589 2.29688
-0.140625 0.452229 2.32812
-0.140625 0.458204 3.57812
-0.109375 0.453183 0.890625
-0.109375 0.450317 0.921875
-0.109375 0.450466 0.953125
-0.109375 0.450567 0.984375
-0.109375 0.45107 1.04688
-0.109375 0.449752 1.07812
-0.109375 0.452343 1.10938
-0.109375 0.451299 1.14062
-0.109375 0.449822 1.17188
-0.109375 0.45061 1.20312
-0.109375 0.450671 1.23438
-0.109375 0.450188 1.26562
-0.109375 0.451605 1.29688
-0.109375 0.470394 1.45312
-0.109375 0.449999 1.48438
-0.109375 0.448724 1.51562
-0.109375 0.448715 1.54688
-0.109375 0.448699 1.60938
-0.109375 0.448676 1.70312
-0.109375 0.45881 2.01562
-0.109375 0.458425 2.14062
-0.109375 0.459834 2.20312
-0.109375 0.45656 2.26562
-0.109375 0.470663 2.29688
-0.109375 0.500974 2.54688
-0.109375 0.454127 3.10938
-0.09375 0.449001 1.28125
-0.09375 0.448651 1.78125
-0.09375 0.494341 2.03125
-0.09375 0.456902 2.15625
-0.09375 0.471726 2.28125
-0.09375 0.570582 2.53125
-0.09375 0.448291 3.15625
-0.09375 0.447827 4.96875
-0.078125 0.450136 0.890625
-0.078125 0.448961 0.921875
-0.078125 0.449091 0.953125
-0.078125 0.449012 0.984375
-0.078125 0.448943 1.01562
-0.078125 0.44893 1.04688
-0.078125 0.449005 1.07812
-0.078125 0.448825 1.10938
-0.078125 0.448821 1.14062
-0.078125 0.449028 1.17188
-0.078125 0.448943 1.20312
-0.078125 0.448801 1.23438
-0.078125 0.448787 1.26562
-0.078125 0.44878 1.29688
-0.078125 0.475033 1.45312
-0.078125 0.448719 1.51562
-0.078125 0.448715 1.54688
-0.078125 0.448704 1.57812
-0.078125 0.44869 1.64062
-0.078125 0.448658 1.76562
-0.078125 0.484181 2.01562
-0.078125 0.529269 2.29688
-0.078125 0.570004 2.54688
-0.078125 0.448413 2.70312
-0.078125 0.465174 3.07812
-0.0625 0.448698 1.5625
-0.046875 0.454068 0.859375
-0.046875 0.450437 0.890625
-0.046875 0.448878 0.921875
-0.046875 0.448871 0.953125
-0.046875 0.448859 0.984375
-0.046875 0.448853 1.01562
-0.046875 0.448843 1.04688
-0.046875 0.448835 1.07812
-0.046875 0.448828 1.10938
-0.046875 0.44882 1.14062
-0.046875 0.448808 1.20312
-0.046875 0.448797 1.23438
-0.046875 0.448786 1.26562
-0.046875 0.448778 1.29688
-0.046875 0.475524 1.45312
-0.046875 0.449352 1.48438
-0.046875 0.448716 1.51562
-0.046875 0.448711 1.54688
-0.046875 0.448687 1.64062
-0.046875 0.44868 1.67188
-0.046875 0.448671 1.70312
-0.046875 0.448663 1.73438
-0.046875 0.448655 1.76562
-0.046875 0.448644 1.79688
-0.046875 0.506431 2.54688
-0.046875 0.448441 2.57812
-0.046875 0.49253 4.14062
-0.046875 0.44801 4.23438
-0.03125 0.455351 0.84375
-0.03125 0.448878 0.90625
-0.03125 0.448854 1.03125
-0.03125 0.448813 1.15625
-0.03125 0.448724 1.46875
-0.03125 0.448698 1.59375
-0.03125 0.448682 1.65625
-0.03125 0.448412 2.71875
-0.03125 0.448386 2.78125
-0.03125 0.465185 3.09375
-0.03125 0.448232 3.40625
-0.03125 0.520677 4.15625
-0.03125 0.447958 4.40625
-0.015625 0.454062 0.859375
-0.015625 0.450959 0.890625
-0.015625 0.448877 0.921875
-0.015625 0.44887 0.953125
-0.015625 0.44886 0.984375
-0.015625 0.448853 1.01562
-0.015625 0.448841 1.04688
-0.015625 0.448838 1.07812
-0.015625 0.448826 1.10938
-0.015625 0.448816 1.14062
-0.015625 0.448811 1.17188
-0.015625 0.448801 1.20312
-0.015625 0.448791 1.23438
-0.015625 0.448782 1.26562
-0.015625 0.448778 1.29688
-0.015625 0.473941 1.45312
-0.015625 0.449529 1.48438
-0.015625 0.448717 1.51562
-0.015625 0.448707 1.54688
-0.015625 0.448692 1.60938
-0.015625 0.448677 1.67188
-0.015625 0.448657 1.73438
-0.015625 0.44865 1.76562
-0.015625 0.448645 1.79688
-0.015625 0.535829 2.54688
-0.015625 0.448749 2.57812
-0.015625 0.45677 3.10938
-0.015625 0.509423 4.14062
-0.015625 0.448022 4.20312
0.015625 0.454697 0.859375
0.015625 0.450224 0.890625
0.015625 0.448875 0.921875
0.015625 0.448866 0.953125
0.015625 0.448854 0.984375
0.015625 0.448848 1.01562
0.015625 0.448842 1.04688
0.015625 0.44883 1.07812
0.015625 0.448825 1.10938
0.015625 0.448814 1.14062
0.015625 0.448808 1.17188
0.015625 0.448801 1.20312
0.015625 0.448795 1.23438
0.015625 0.448776 1.29688
0.015625 0.469367 1.45312
0.015625 0.44888 1.48438
0.015625 0.448715 1.51562
0.015625 0.44871 1.54688
0.015625 0.448699 1.57812
0.015625 0.448683 1.64062
0.015625 0.448673 1.67188
0.015625 0.448655 1.73438
0.015625 0.448648 1.76562
0.015625 0.47757 1.98438
0.015625 0.464338 2.07812
0.015625 0.528736 2.54688
0.015625 0.469118 3.07812
0.015625 0.465188 3.10938
0.03125 0.455326 0.84375
0.03125 0.448861 0.96875
0.03125 0.448821 1.15625
0.03125 0.449813 1.34375
0.03125 0.479679 1.46875
0.03125 0.448693 1.59375
0.03125 0.448642 1.78125
0.03125 0.448751 2.59375
0.046875 0.454473 0.859375
0.046875 0.450617 0.890625
0.046875 0.448872 0.921875
0.046875 0.448865 0.953125
0.046875 0.448855 0.984375
0.046875 0.448848 1.01562
0.046875 0.448841 1.04688
0.046875 0.448834 1.07812
0.046875 0.448826 1.10938
0.046875 0.448816 1.14062
0.046875 0.448806 1.17188
0.046875 0.448797 1.20312
0.046875 0.44879 1.23438
0.046875 0.44878 1.26562
0.046875 0.474746 1.45312
0.046875 0.448726 1.48438
0.046875 0.448703 1.54688
0.046875 0.448698 1.57812
0.046875 0.448693 1.60938
0.046875 0.44867 1.67188
0.046875 0.448667 1.70312
0.046875 0.472217 1.98438
0.046875 0.461297 2.04688
0.046875 0.484453 2.54688
0.046875 0.448431 2.60938
0.0625 0.448273 3.1875
0.0625 0.51507 4.1875
0.0625 0.497257 7.0625
0.078125 0.455004 0.859375
0.078125 0.450124 0.890625
0.078125 0.448872 0.921875
0.078125 0.448862 0.953125
0.078125 0.448857 0.984375
0.078125 0.448846 1.01562
0.078125 0.448839 1.04688
0.078125 0.448831 1.07812
0.078125 0.448823 1.10938
0.078125 0.448797 1.20312
0.078125 0.448788 1.23438
0.078125 0.448778 1.26562
0.078125 0.470152 1.45312
0.078125 0.451121 1.48438
0.078125 0.448711 1.51562
0.078125 0.448704 1.54688
0.078125 0.448696 1.57812
0.078125 0.448687 1.60938
0.078125 0.448654 1.73438
0.078125 0.448649 1.76562
0.078125 0.474391 1.98438
0.078125 0.452211 2.01562
0.078125 0.449196 2.04688
0.078125 0.448848 2.23438
0.078125 0.448515 2.29688
0.078125 0.471381 2.54688
0.078125 0.448418 2.64062
0.09375 0.448817 1.09375
0.09375 0.44868 1.65625
0.09375 0.475926 1.96875
0.09375 0.448562 2.09375
0.09375 0.44906 2.21875
0.09375 0.448515 2.28125
0.09375 0.448399 2.71875
0.09375 0.448387 2.78125
0.09375 0.469137 3.09375
0.09375 0.448273 3.15625
0.09375 0.448228 3.40625
0.09375 0.51507 4.15625
0.109375 0.454991 0.859375
0.109375 0.451341 0.890625
0.109375 0.448871 0.921875
0.109375 0.448863 0.953125
0.109375 0.448855 0.984375
0.109375 0.448843 1.01562
0.109375 0.448836 1.04688
0.109375 0.44883 1.07812
0.109375 0.44882 1.10938
0.109375 0.448814 1.14062
0.109375 0.448799 1.20312
0.109375 0.448778 1.26562
0.109375 0.448768 1.29688
0.109375 0.470131 1.45312
0.109375 0.449338 1.48438
0.109375 0.448709 1.51562
0.109375 0.448704 1.54688
0.109375 0.448694 1.57812
0.109375 0.448683 1.60938
0.109375 0.448671 1.67188
0.109375 0.448651 1.73438
0.109375 0.448643 1.76562
0.109375 0.468174 1.98438
0.109375 0.44945 2.01562
0.109375 0.448524 2.23438
0.109375 0.448516 2.26562
0.109375 0.477676 2.54688
0.140625 0.454342 0.859375
0.140625 0.449067 0.890625
0.140625 0.448867 0.921875
0.140625 0.44886 0.953125
0.140625 0.44885 0.984375
0.140625 0.448846 1.01562
0.140625 0.448835 1.04688
0.140625 0.448827 1.07812
0.140625 0.448816 1.10938
0.140625 0.448808 1.14062
0.140625 0.448801 1.17188
0.140625 0.448787 1.23438
0.140625 0.448773 1.26562
0.140625 0.448895 1.29688
0.140625 0.477563 1.45312
0.140625 0.44918 1.48438
0.140625 0.448712 1.51562
0.140625 0.448684 1.60938
0.140625 0.486173 1.98438
0.140625 0.448525 2.23438
0.140625 0.448504 2.32812
0.140625 0.449125 2.35938
0.140625 0.459279 2.54688
0.15625 0.448854 0.96875
0.15625 0.448815 1.09375
0.15625 0.448813 1.15625
0.15625 0.44878 1.28125
0.15625 0.489309 1.46875
0.15625 0.448657 1.71875
0.15625 0.448561 2.09375
0.15625 0.474321 2.53125
0.15625 0.463273 4.71875
0.15625 0.497502 6.15625
0.15625 0.497091 7.71875
0.171875 0.454009 0.859375
0.171875 0.449879 0.890625
0.171875 0.448866 0.921875
0.171875 0.448857 0.953125
0.171875 0.448849 0.984375
0.171875 0.44884 1.01562
0.171875 0.448833 1.04688
0.171875 0.448826 1.07812
0.171875 0.448816 1.10938
0.171875 0.448806 1.14062
0.171875 0.4488 1.17188
0.171875 0.448793 1.20312
0.171875 0.44878 1.23438
0.171875 0.448767 1.29688
0.171875 0.465971 1.45312
0.171875 0.448701 1.54688
0.171875 0.448687 1.57812
0.171875 0.448681 1.60938
0.171875 0.448663 1.67188
0.171875 0.448658 1.70312
0.171875 0.448654 1.73438
0.171875 0.448638 1.76562
0.171875 0.448634 1.79688
0.171875 0.470437 1.98438
0.171875 0.450204 2.01562
0.171875 0.44857 2.07812
0.171875 0.448558 2.10938
0.171875 0.44854 2.17188
0.171875 0.448531 2.20312
0.171875 0.448523 2.23438
0.171875 0.469227 2.54688
0.171875 0.44876 2.57812
0.171875 0.448382 2.76562
0.1875 0.497091 7.6875
0.203125 0.454003 0.859375
0.203125 0.449737 0.890625
0.203125 0.448865 0.921875
0.203125 0.448856 0.953125
0.203125 0.448848 0.984375
0.203125 0.448838 1.01562
0.203125 0.448833 1.04688
0.203125 0.448823 1.07812
0.203125 0.448816 1.10938
0.203125 0.448788 1.20312
0.203125 0.448786 1.23438
0.203125 0.448772 1.26562
0.203125 0.48047 1.45312
0.203125 0.448704 1.51562
0.203125 0.448693 1.54688
0.203125 0.448681 1.60938
0.203125 0.448664 1.67188
0.203125 0.464178 1.98438
0.203125 0.44977 2.01562
0.203125 0.448567 2.07812
0.203125 0.448533 2.20312
0.203125 0.448498 2.32812
0.203125 0.449134 2.35938
0.203125 0.447992 4.23438
0.21875 0.455278 0.84375
0.21875 0.448684 1.59375
0.21875 0.448642 1.78125
0.21875 0.456797 1.96875
0.21875 0.44854 2.15625
0.21875 0.448499 2.34375
0.21875 0.448417 2.65625
0.21875 0.448368 2.78125
0.21875 0.448346 2.90625
0.21875 0.465223 3.09375
0.21875 0.448228 3.34375
0.21875 0.470356 4.15625
0.234375 0.450623 0.890625
0.234375 0.448862 0.921875
0.234375 0.448856 0.953125
0.234375 0.448846 0.984375
0.234375 0.448838 1.01562
0.234375 0.448829 1.04688
0.234375 0.448821 1.07812
0.234375 0.448813 1.10938
0.234375 0.448803 1.14062
0.234375 0.448796 1.17188
0.234375 0.448792 1.20312
0.234375 0.448784 1.23438
0.234375 0.448774 1.26562
0.234375 0.468874 1.45312
0.234375 0.449587 1.48438
0.234375 0.448706 1.51562
0.234375 0.448931 1.54688
0.234375 0.448688 1.57812
0.234375 0.448683 1.60938
0.234375 0.448742 1.64062
0.234375 0.44881 1.67188
0.234375 0.456794 1.98438
0.234375 0.448423 2.60938
0.234375 0.448411 2.64062
0.234375 0.448379 2.76562
0.234375 0.473114 3.07812
0.265625 0.450464 0.890625
0.265625 0.448862 0.921875
0.265625 0.448855 0.953125
0.265625 0.448846 0.984375
0.265625 0.448835 1.01562
0.265625 0.448832 1.04688
0.265625 0.448819 1.07812
0.265625 0.448813 1.10938
0.265625 0.448802 1.14062
0.265625 0.448794 1.17188
0.265625 0.448789 1.20312
0.265625 0.448778 1.23438
0.265625 0.44877 1.26562
0.265625 0.448764 1.29688
0.265625 0.475597 1.45312
0.265625 0.454901 1.48438
0.265625 0.45313 1.51562
0.265625 0.451798 1.54688
0.265625 0.451674 1.57812
0.265625 0.451342 1.64062
0.265625 0.451672 1.73438
0.265625 0.465923 1.98438
0.265625 0.448554 2.10938
0.265625 0.458838 2.54688
0.265625 0.448409 2.64062
0.265625 0.448397 2.70312
0.265625 0.448385 2.73438
0.265625 0.498749 4.14062
0.265625 0.450114 4.17188
0.28125 0.44883 1.03125
0.28125 0.448771 1.28125
0.28125 0.490029 1.46875
0.28125 0.459499 1.53125
0.28125 0.454186 1.65625
0.28125 0.457428 1.78125
0.28125 0.448564 2.09375
0.28125 0.448527 2.21875
0.28125 0.448409 2.65625
0.28125 0.503835 4.15625
0.28125 0.497573 5.84375
0.296875 0.450722 0.890625
0.296875 0.448861 0.921875
0.296875 0.448852 0.953125
0.296875 0.448843 0.984375
0.296875 0.448833 1.01562
0.296875 0.448826 1.04688
0.296875 0.448817 1.07812
0.296875 0.44881 1.10938
0.296875 0.448803 1.14062
0.296875 0.448795 1.17188
0.296875 0.448786 1.20312
0.296875 0.448773 1.26562
0.296875 0.448759 1.29688
0.296875 0.477907 1.45312
0.296875 0.464841 1.51562
0.296875 0.457901 1.79688
0.296875 0.466495 1.98438
0.296875 0.448562 2.07812
0.296875 0.474353 2.54688
0.296875 0.448363 2.79688
0.3125 0.457002 3.6875
0.3125 0.497573 5.8125
0.328125 0.449639 0.890625
0.328125 0.448858 0.921875
0.328125 0.448848 0.953125
0.328125 0.448841 0.984375
0.328125 0.448833 1.01562
0.328125 0.448825 1.04688
0.328125 0.448817 1.07812
0.328125 0.44881 1.10938
0.328125 0.448799 1.14062
0.328125 0.448792 1.17188
0.328125 0.448785 1.20312
0.328125 0.448778 1.23438
0.328125 0.448768 1.26562
0.328125 0.47405 1.98438
0.328125 0.44857 2.01562
0.328125 0.448511 2.23438
0.328125 0.463377 2.54688
0.34375 0.453971 0.84375
0.34375 0.448859 0.90625
0.34375 0.448801 1.15625
0.34375 0.452699 1.96875
0.34375 0.448502 2.28125
0.34375 0.47773 2.53125
0.34375 0.448346 2.84375
0.34375 0.457002 3.65625
0.34375 0.448076 3.90625
0.34375 0.447966 4.28125
0.359375 0.454924 0.859375
0.359375 0.449473 0.890625
0.359375 0.448857 0.921875
0.359375 0.448849 0.953125
0.359375 0.448842 0.984375
0.359375 0.448831 1.01562
0.359375 0.448824 1.04688
0.359375 0.448819 1.07812
0.359375 0.448804 1.10938
0.359375 0.448798 1.14062
0.359375 0.44879 1.17188
0.359375 0.448782 1.20312
0.359375 0.448778 1.23438
0.359375 0.448767 1.26562
0.359375 0.448757 1.29688
0.359375 0.523003 1.98438
0.359375 0.448554 2.07812
0.359375 0.448487 2.32812
0.359375 0.471168 2.54688
0.359375 0.447965 4.29688
0.390625 0.451856 0.890625
0.390625 0.448856 0.921875
0.390625 0.448845 0.953125
0.390625 0.448838 0.984375
0.390625 0.44883 1.01562
0.390625 0.448822 1.04688
0.390625 0.448813 1.07812
0.390625 0.448802 1.10938
0.390625 0.448795 1.14062
0.390625 0.448789 1.17188
0.390625 0.448779 1.20312
0.390625 0.448775 1.23438
0.390625 0.448763 1.26562
0.390625 0.449831 1.32812
0.390625 0.552882 1.98438
0.390625 0.449356 2.01562
0.390625 0.448538 2.14062
0.390625 0.44851 2.23438
0.390625 0.45312 2.54688
0.390625 0.524426 3.60938
0.40625 0.509452 1.53125
0.40625 0.486715 1.65625
0.40625 0.581466 1.78125
0.40625 0.483426 1.96875
0.40625 0.448564 2.03125
0.40625 0.448522 2.21875
0.40625 0.448391 2.71875
0.40625 0.448352 2.84375
0.40625 0.514583 3.59375
0.40625 0.461423 3.65625
0.421875 0.450412 0.890625
0.421875 0.448852 0.921875
0.421875 0.448845 0.953125
0.421875 0.448836 0.984375
0.421875 0.44883 1.01562
0.421875 0.448819 1.04688
0.421875 0.448815 1.07812
0.421875 0.448803 1.10938
0.421875 0.448796 1.14062
0.421875 0.448786 1.17188
0.421875 0.448782 1.20312
0.421875 0.448774 1.23438
0.421875 0.448761 1.26562
0.421875 0.448759 1.29688
0.421875 0.449833 1.32812
0.421875 0.47834 1.51562
0.421875 0.490527 1.54688
0.421875 0.478574 1.57812
0.421875 0.513262 1.64062
0.421875 0.54117 1.67188
0.421875 0.558416 1.70312
0.421875 0.520476 1.73438
0.421875 0.507521 1.76562
0.421875 0.541483 1.79688
0.421875 0.59797 1.82812
0.421875 0.563158 1.85938
0.421875 0.557509 1.98438
0.421875 0.448564 2.01562
0.421875 0.44854 2.10938
0.421875 0.448517 2.20312
0.421875 0.461796 2.54688
0.421875 0.539205 3.60938
0.453125 0.450418 0.890625
0.453125 0.448852 0.921875
0.453125 0.448844 0.953125
0.453125 0.448835 0.984375
0.453125 0.448827 1.01562
0.453125 0.44882 1.04688
0.453125 0.448811 1.07812
0.453125 0.448797 1.14062
0.453125 0.448789 1.17188
0.453125 0.448779 1.20312
0.453125 0.448758 1.26562
0.453125 0.488506 1.48438
0.453125 0.465836 1.51562
0.453125 0.449881 1.54688
0.453125 0.451971 1.57812
0.453125 0.451379 1.60938
0.453125 0.45033 1.64062
0.453125 0.455256 1.67188
0.453125 0.454812 1.70312
0.453125 0.451438 1.73438
0.453125 0.456795 1.76562
0.453125 0.539694 1.98438
0.453125 0.448556 2.04688
0.453125 0.448552 2.07812
0.453125 0.44854 2.10938
0.453125 0.448532 2.14062
0.453125 0.448501 2.23438
0.453125 0.470191 2.54688
0.453125 0.448599 2.57812
0.453125 0.448413 2.60938
0.46875 0.455212 0.84375
0.46875 0.448853 0.90625
0.46875 0.448823 1.03125
0.46875 0.448784 1.15625
0.46875 0.448766 1.28125
0.46875 0.501505 1.46875
0.46875 0.448498 2.28125
0.46875 0.477763 2.53125
0.46875 0.448093 3.78125
0.46875 0.459835 4.15625
0.46875 0.46242 4.65625
0.484375 0.450168 0.890625
0.484375 0.448848 0.921875
0.484375 0.44884 0.953125
0.484375 0.44883 0.984375
0.484375 0.448824 1.01562
0.484375 0.448817 1.04688
0.484375 0.448807 1.07812
0.484375 0.448802 1.10938
0.484375 0.448784 1.17188
0.484375 0.448775 1.20312
0.484375 0.44877 1.23438
0.484375 0.44876 1.26562
0.484375 0.448754 1.29688
0.484375 0.485538 1.48438
0.484375 0.45594 1.51562
0.484375 0.448686 1.54688
0.484375 0.448677 1.57812
0.484375 0.448661 1.64062
0.484375 0.448625 1.76562
0.484375 0.455499 1.98438
0.484375 0.450918 2.01562
0.484375 0.44855 2.07812
0.484375 0.448528 2.14062
0.484375 0.461807 2.54688
0.484375 0.448781 2.57812
0.515625 0.449863 0.890625
0.515625 0.448848 0.921875
0.515625 0.448838 0.953125
0.515625 0.44883 0.984375
0.515625 0.448822 1.01562
0.515625 0.448815 1.04688
0.515625 0.448805 1.07812
0.515625 0.448797 1.10938
0.515625 0.448781 1.17188
0.515625 0.448775 1.20312
0.515625 0.448768 1.23438
0.515625 0.448762 1.26562
0.515625 0.448753 1.29688
0.515625 0.483177 1.48438
0.515625 0.452462 1.51562
0.515625 0.448683 1.54688
0.515625 0.448674 1.57812
0.515625 0.448665 1.60938
0.515625 0.448664 1.64062
0.515625 0.448649 1.67188
0.515625 0.448645 1.70312
0.515625 0.448634 1.73438
0.515625 0.448608 1.82812
0.515625 0.458834 1.98438
0.515625 0.46181 2.54688
0.515625 0.469191 3.14062
0.53125 0.45391 0.84375
0.53125 0.448789 1.15625
0.53125 0.448749 1.28125
0.53125 0.448476 2.34375
0.53125 0.453139 2.53125
0.53125 0.448338 2.84375
0.53125 0.457151 3.15625
0.53125 0.479611 3.46875
0.53125 0.461442 3.65625
0.53125 0.448056 3.96875
0.53125 0.465038 4.15625
0.546875 0.453914 0.859375
0.546875 0.449574 0.890625
0.546875 0.448848 0.921875
0.546875 0.448837 0.953125
0.546875 0.44883 0.984375
0.546875 0.44882 1.01562
0.546875 0.448814 1.04688
0.546875 0.448804 1.07812
0.546875 0.448797 1.10938
0.546875 0.448789 1.14062
0.546875 0.448781 1.17188
0.546875 0.448774 1.20312
0.546875 0.448765 1.23438
0.546875 0.448758 1.26562
0.546875 0.448749 1.29688
0.546875 0.481604 1.48438
0.546875 0.45744 1.51562
0.546875 0.448664 1.60938
0.546875 0.448659 1.64062
0.546875 0.448632 1.73438
0.546875 0.448609 1.82812
0.546875 0.461122 1.98438
0.546875 0.448518 2.17188
0.546875 0.46182 2.54688
0.546875 0.448414 2.57812
0.546875 0.44818 3.45312
0.5625 0.453139 2.5625
0.5625 0.448267 3.0625
0.5625 0.447952 4.3125
0.578125 0.454221 0.859375
0.578125 0.450099 0.890625
0.578125 0.448844 0.921875
0.578125 0.448836 0.953125
0.578125 0.448825 0.984375
0.578125 0.448821 1.01562
0.578125 0.448812 1.04688
0.578125 0.448802 1.07812
0.578125 0.448795 1.10938
0.578125 0.448788 1.14062
0.578125 0.448778 1.17188
0.578125 0.448773 1.20312
0.578125 0.448763 1.23438
0.578125 0.448753 1.26562
0.578125 0.448749 1.29688
0.578125 0.47648 1.48438
0.578125 0.455681 1.51562
0.578125 0.448679 1.54688
0.578125 0.448666 1.60938
0.578125 0.44864 1.70312
0.578125 0.448631 1.73438
0.578125 0.448611 1.79688
0.578125 0.469142 1.98438
0.578125 0.448503 2.23438
0.578125 0.476601 3.07812
0.59375 0.44885 0.90625
0.59375 0.448798 1.09375
0.59375 0.495364 1.46875
0.59375 0.451247 1.53125
0.59375 0.448652 1.65625
0.59375 0.448617 1.78125
0.59375 0.468133 1.96875
0.59375 0.448507 2.21875
0.59375 0.448377 2.71875
0.59375 0.448267 3.09375
0.59375 0.448218 3.28125
0.609375 0.453894 0.859375
0.609375 0.449755 0.890625
0.609375 0.448843 0.921875
0.609375 0.448835 0.953125
0.609375 0.448826 0.984375
0.609375 0.448817 1.01562
0.609375 0.448809 1.04688
0.609375 0.448802 1.07812
0.609375 0.448795 1.10938
0.609375 0.448784 1.14062
0.609375 0.448777 1.17188
0.609375 0.448767 1.20312
0.609375 0.448764 1.23438
0.609375 0.481849 1.48438
0.609375 0.459471 1.51562
0.609375 0.44868 1.54688
0.609375 0.448672 1.57812
0.609375 0.448656 1.64062
0.609375 0.448647 1.67188
0.609375 0.448641 1.70312
0.609375 0.448616 1.79688
0.609375 0.448604 1.82812
0.609375 0.46814 1.98438
0.609375 0.466608 2.54688
0.609375 0.448375 2.70312
0.609375 0.448335 2.85938
0.609375 0.468613 3.07812
0.640625 0.44884 0.921875
0.640625 0.448831 0.953125
0.640625 0.448824 0.984375
0.640625 0.448816 1.01562
0.640625 0.448806 1.04688
0.640625 0.4488 1.07812
0.640625 0.448793 1.10938
0.640625 0.448785 1.14062
0.640625 0.448775 1.17188
0.640625 0.448757 1.23438
0.640625 0.448748 1.26562
0.640625 0.448898 1.29688
0.640625 0.449845 1.32812
0.640625 0.4699 1.48438
0.640625 0.451893 1.51562
0.640625 0.448669 1.57812
0.640625 0.448663 1.60938
0.640625 0.448631 1.73438
0.640625 0.448619 1.76562
0.640625 0.448597 1.85938
0.640625 0.460629 1.98438
0.640625 0.448551 2.01562
0.640625 0.448515 2.17188
0.640625 0.448503 2.20312
0.640625 0.476675 2.54688
0.640625 0.448332 2.85938
0.65625 0.448842 0.90625
0.65625 0.448819 1.03125
0.65625 0.455166 1.53125
0.65625 0.448655 1.65625
0.65625 0.44862 1.78125
0.65625 0.448528 2.09375
0.65625 0.44841 2.59375
0.65625 0.448379 2.71875
0.65625 0.448339 2.84375
0.65625 0.453715 3.09375
0.65625 0.448231 3.21875
0.65625 0.448183 3.40625
0.65625 0.459856 4.15625
0.671875 0.448831 0.953125
0.671875 0.448821 0.984375
0.671875 0.448818 1.01562
0.671875 0.448806 1.04688
0.671875 0.4488 1.07812
0.671875 0.448792 1.10938
0.671875 0.448783 1.14062
0.671875 0.448774 1.17188
0.671875 0.448764 1.20312
0.671875 0.448761 1.23438
0.671875 0.448752 1.26562
0.671875 0.448743 1.29688
0.671875 0.479541 1.48438
0.671875 0.457704 1.51562
0.671875 0.448676 1.54688
0.671875 0.448667 1.57812
0.671875 0.448659 1.60938
0.671875 0.448651 1.64062
0.671875 0.448623 1.73438
0.671875 0.448615 1.76562
0.671875 0.448597 1.82812
0.671875 0.456721 1.98438
0.671875 0.448831 2.01562
0.671875 0.448545 2.04688
0.671875 0.44852 2.14062
0.671875 0.448509 2.17188
0.671875 0.474437 2.54688
0.671875 0.448372 2.70312
0.671875 0.468621 3.07812
0.6875 0.448842 0.9375
0.6875 0.448052 3.9375
0.703125 0.448813 1.01562
0.703125 0.448805 1.04688
0.703125 0.448795 1.07812
0.703125 0.448787 1.10938
0.703125 0.448783 1.14062
0.703125 0.448771 1.17188
0.703125 0.448765 1.20312
0.703125 0.448757 1.23438
0.703125 0.448747 1.26562
0.703125 0.448739 1.29688
0.703125 0.486292 1.48438
0.703125 0.453138 1.51562
0.703125 0.448674 1.54688
0.703125 0.448667 1.57812
0.703125 0.448633 1.70312
0.703125 0.473021 1.98438
0.703125 0.448526 2.10938
0.703125 0.448472 2.29688
0.703125 0.459618 2.54688
0.71875 0.448762 1.21875
0.71875 0.448745 1.28125
0.71875 0.499397 1.46875
0.71875 0.458793 1.96875
0.71875 0.448513 2.15625
0.71875 0.44848 2.28125
0.71875 0.448199 3.34375
0.71875 0.447868 4.71875
0.734375 0.448796 1.07812
0.734375 0.448786 1.10938
0.734375 0.448781 1.14062
0.734375 0.448763 1.20312
0.734375 0.448756 1.23438
0.734375 0.448749 1.26562
0.734375 0.448739 1.29688
0.734375 0.484626 1.48438
0.734375 0.452809 1.51562
0.734375 0.44867 1.54688
0.734375 0.448658 1.60938
0.734375 0.448647 1.64062
0.734375 0.448633 1.70312
0.734375 0.448609 1.76562
0.734375 0.448604 1.79688
0.734375 0.448591 1.85938
0.734375 0.462561 1.98438
0.734375 0.460954 3.07812
0.765625 0.448779 1.14062
0.765625 0.44877 1.17188
0.765625 0.448763 1.20312
0.765625 0.448754 1.23438
0.765625 0.448749 1.26562
0.765625 0.448736 1.29688
0.765625 0.493112 1.48438
0.765625 0.456717 1.51562
0.765625 0.44867 1.54688
0.765625 0.448664 1.57812
0.765625 0.448654 1.60938
0.765625 0.448641 1.67188
0.765625 0.448625 1.70312
0.765625 0.448614 1.76562
0.765625 0.448605 1.79688
0.765625 0.448596 1.82812
0.765625 0.448589 1.85938
0.765625 0.462561 1.98438
0.765625 0.449322 2.01562
0.765625 0.448528 2.07812
0.765625 0.449245 2.35938
0.765625 0.480754 3.07812
0.78125 0.448761 1.21875
0.78125 0.448733 1.28125
0.78125 0.466259 1.46875
0.78125 0.453665 1.53125
0.78125 0.448473 2.28125
0.78125 0.447906 4.46875
0.796875 0.448774 1.14062
0.796875 0.448769 1.17188
0.796875 0.448763 1.20312
0.796875 0.448752 1.23438
0.796875 0.448744 1.26562
0.796875 0.448736 1.29688
0.796875 0.488628 1.48438
0.796875 0.4569 1.51562
0.796875 0.448671 1.54688
0.796875 0.448651 1.60938
0.796875 0.448647 1.64062
0.796875 0.448636 1.67188
0.796875 0.448625 1.70312
0.796875 0.448617 1.73438
0.796875 0.448611 1.76562
0.796875 0.448595 1.82812
0.796875 0.470589 1.98438
0.796875 0.497502 3.07812
0.8125 0.453665 1.5625
0.828125 0.448889 1.20312
0.828125 0.449708 1.26562
0.828125 0.44898 1.29688
0.828125 0.490084 1.48438
0.828125 0.456743 1.51562
0.828125 0.448665 1.54688
0.828125 0.448652 1.60938
0.828125 0.448643 1.64062
0.828125 0.448631 1.67188
0.828125 0.448625 1.70312
0.828125 0.448618 1.73438
0.828125 0.505904 3.07812
0.84375 0.448622 1.71875
0.84375 0.448597 1.78125
0.84375 0.473557 1.96875
0.84375 0.448513 2.09375
0.84375 0.449446 2.15625
0.84375 0.472603 3.09375
0.84375 0.448162 3.46875
0.84375 0.456853 4.71875
0.859375 0.453187 1.23438
0.859375 0.450887 1.26562
0.859375 0.495296 1.48438
0.859375 0.448667 1.54688
0.859375 0.448638 1.64062
0.859375 0.448633 1.67188
0.859375 0.448623 1.70312
0.859375 0.448613 1.73438
0.859375 0.448599 1.79688
0.859375 0.4633 1.98438
0.859375 0.449547 2.10938
0.859375 0.497514 3.07812
0.859375 0.452765 3.10938
0.890625 0.485273 1.48438
0.890625 0.458162 1.51562
0.890625 0.513044 2.76562
0.890625 0.50647 2.79688
0.890625 0.509135 2.85938
0.890625 0.509349 3.04688
0.890625 0.448248 3.10938
0.90625 0.469843 1.46875
0.90625 0.45664 1.53125
0.90625 0.518397 2.78125
0.90625 0.569511 3.03125
0.90625 0.447786 4.90625
0.921875 0.493968 1.51562
0.96875 0.451756 3.78125
